# .PCD v0.7 - Point Cloud Data file format
VERSION 0.7
FIELDS x y z
SIZE 4 4 4
TYPE F F F
COUNT 1 1 1
WIDTH 668
HEIGHT 1
VIEWPOINT 0 0 0 1 0 0 0
POINTS 668
DATA ascii
0.077757031 0.19967332 0.80797923
0.089233018 0.20373467 0.80798215
0.066373751 0.20723616 0.80735594
0.073996924 0.19595669 0.80884093
0.077798314 0.19597523 0.8087709
0.058812715 0.1997389 0.80897444
0.074010678 0.19980329 0.80865592
0.081623614 0.19987057 0.80852324
0.085490204 0.20002253 0.80896127
0.089264773 0.20000833 0.80872709
0.062628001 0.20360482 0.80865157
0.066451512 0.2036961 0.80893606
0.070233367 0.20367676 0.80862874
0.074056871 0.20374583 0.80879921
0.077841997 0.20372829 0.80847317
0.081697784 0.20386079 0.80884391
0.085460268 0.20375445 0.80824137
0.093117617 0.2039012 0.80843598
0.070238702 0.20744561 0.8080644
0.089343809 0.20779417 0.80850124
0.093219772 0.20795576 0.80881941
0.062722377 0.21153128 0.80896771
0.074029349 0.1922774 0.80978364
0.070280403 0.19614205 0.80983239
0.055071726 0.19990604 0.80969977
0.062649012 0.19983402 0.80918235
0.066475399 0.19993676 0.80949879
0.070289217 0.20001267 0.80960304
0.093189716 0.2002593 0.80951363
0.10470144 0.20047465 0.8096723
0.10855012 0.20056613 0.80976135
0.055124346 0.20386812 0.80992937
0.058881026 0.20373449 0.80934602
0.097074993 0.2042577 0.80961674
0.05513382 0.20777471 0.80987388
0.058956068 0.2077658 0.80978274
0.062749878 0.20776783 0.80963457
0.074149519 0.20775686 0.80914348
0.085656025 0.20803642 0.80965453
0.097145148 0.2082379 0.80967993
0.058962274 0.21165484 0.80962396
0.074245311 0.211862 0.80979961
0.078049898 0.21186073 0.80955935
0.089531817 0.21201524 0.80948472
0.093346804 0.21205373 0.80941677
0.097241849 0.2122599 0.80996281
0.078096405 0.21582447 0.80959857
0.089625984 0.21606445 0.80982369
0.097312346 0.21617812 0.80978602
0.055109955 0.19625267 0.81077969
0.062675931 0.19613969 0.8100934
0.066509567 0.1962862 0.81052309
0.081748843 0.19634548 0.81015193
0.085556649 0.19640942 0.81024325
0.10093287 0.19671138 0.81064272
0.10474674 0.19674325 0.81052375
0.051307507 0.20007375 0.81050545
0.097071677 0.2004507 0.81008446
0.10096289 0.20059125 0.81039786
0.051315375 0.20388219 0.81011373
0.047558252 0.20400727 0.81073916
0.10106953 0.20460668 0.81074113
0.10869881 0.20463978 0.81032825
0.051345576 0.20778593 0.81007361
0.078029811 0.20804532 0.8100335
0.081873663 0.20812121 0.8101697
0.1011388 0.2085827 0.81078315
0.055199791 0.21180838 0.8102715
0.085748956 0.2120861 0.81006819
0.10113697 0.21239281 0.81022871
0.051449854 0.21580212 0.81060451
0.055260256 0.21583313 0.81056076
0.059035495 0.21570268 0.81000704
0.062921114 0.21598636 0.8108862
0.074325219 0.21593621 0.81025535
0.051459629 0.21973056 0.81056619
0.055266794 0.21962966 0.8100577
0.074430168 0.22002195 0.81070197
0.078293614 0.22014928 0.81090552
0.082109071 0.22017701 0.81083673
0.078339174 0.22413565 0.81090581
0.070382416 0.19267666 0.81158209
0.078016363 0.19275233 0.81166685
0.051364463 0.19642057 0.81149215
0.058957931 0.19638173 0.81116301
0.089547075 0.19680873 0.81171739
0.093370177 0.19681849 0.8115589
0.097190589 0.19686995 0.8115465
0.10874317 0.19710022 0.81171769
0.14364453 0.1978832 0.81189817
0.14747021 0.19789535 0.81148744
0.14366934 0.20177928 0.81157118
0.10498235 0.20481724 0.81131613
0.047625322 0.20809194 0.81139725
0.10504587 0.2087777 0.81127769
0.116616 0.20899509 0.81120139
0.051440027 0.21196263 0.81101978
0.066780694 0.21236722 0.81198025
0.105193 0.21289 0.81183183
0.085968107 0.21646647 0.8116461
0.093649559 0.21657266 0.81150919
0.10132165 0.21660534 0.81114089
0.059206266 0.22012584 0.81172538
0.06685473 0.22023946 0.8118369
0.070660017 0.22019452 0.8114571
0.093670644 0.22045769 0.81113249
0.051532764 0.22385749 0.81112003
0.05535553 0.22389266 0.81110907
0.066919684 0.22425187 0.81193304
0.070682004 0.22405398 0.81100065
0.074522771 0.22416142 0.81124097
0.08222279 0.22433786 0.81146276
0.055427279 0.22799945 0.81150687
0.059286263 0.22811536 0.81184518
0.070765115 0.22817296 0.81151402
0.055472687 0.23198372 0.81149131
0.066679269 0.19292739 0.81283748
0.081890695 0.19293848 0.81220007
0.10107657 0.19319537 0.81228298
0.10493316 0.19329792 0.81246775
0.14359061 0.19398826 0.81220627
0.11267092 0.19730924 0.81230146
0.1165738 0.19745912 0.81258953
0.13983646 0.19792913 0.81252128
0.047617827 0.20047054 0.81223941
0.112746 0.20126772 0.81231242
0.12445875 0.20165108 0.8129617
0.13605665 0.20180701 0.81253463
0.13986918 0.20180309 0.81210601
0.11279048 0.20515333 0.81207597
0.12062558 0.20547961 0.81271702
0.13619508 0.20588712 0.8128925
0.14005345 0.20590448 0.81254339
0.10902556 0.20909472 0.8122198
0.1129447 0.20927456 0.81260234
0.12074735 0.20950247 0.81292862
0.047697157 0.21221256 0.81208324
0.070622094 0.21243186 0.81211555
0.08212965 0.21261021 0.81223387
0.1091167 0.2130903 0.81230175
0.11306594 0.21332173 0.81288952
0.047731102 0.2162936 0.81258535
0.06687811 0.21644002 0.81249952
0.070671603 0.21636425 0.81200284
0.10534228 0.21702114 0.81240034
0.047767509 0.2202813 0.81263959
0.0630619 0.220356 0.81238568
0.08613383 0.22066791 0.81244737
0.090004168 0.22082299 0.81272572
0.097727537 0.22094133 0.81268841
0.10157418 0.22098339 0.81256753
0.059275314 0.22428708 0.81234771
0.063120179 0.22433844 0.81246269
0.086216852 0.22473809 0.81270963
0.090050735 0.22479042 0.8125785
0.051634096 0.22812365 0.81208926
0.066987827 0.22828543 0.81204021
0.074684195 0.22844729 0.81224555
0.078494169 0.22845009 0.8120113
0.08241161 0.22865079 0.81254637
0.10563521 0.22919232 0.81279635
0.06709893 0.2325682 0.8129791
0.07088767 0.23237701 0.81215531
0.078598551 0.23253261 0.81229728
0.10183136 0.23307662 0.81254619
0.071134783 0.24473383 0.81290215
0.14771022 0.19053118 0.81388283
0.051442306 0.19291504 0.81321263
0.05527227 0.19296721 0.8132847
0.059058331 0.19292387 0.81306189
0.085816011 0.193195 0.81311125
0.089660324 0.1932507 0.81315112
0.09733735 0.19336487 0.81321627
0.10891823 0.19359235 0.81354088
0.11279034 0.19364916 0.81348103
0.1166145 0.19366197 0.81323606
0.13991597 0.19417967 0.81343788
0.12054823 0.19771355 0.8133328
0.13225184 0.19805433 0.81374609
0.13607204 0.19802648 0.81322318
0.11683681 0.20171271 0.81387866
0.12060662 0.20161375 0.81314534
0.1284582 0.20191465 0.81366348
0.13224657 0.20187727 0.81312615
0.14792053 0.20233555 0.81334215
0.04388041 0.20463856 0.81335109
0.1168146 0.20551099 0.81315362
0.12459981 0.20571652 0.8132894
0.12857893 0.20598553 0.81398761
0.13242894 0.20596887 0.81363279
0.1441645 0.20631692 0.81372625
0.14800455 0.2063275 0.81329697
0.12476642 0.20981085 0.81375599
0.13646324 0.21013936 0.8138417
0.11702584 0.21355402 0.81345391
0.12092502 0.21366102 0.81351453
0.12486055 0.21386489 0.81391734
0.082283184 0.21679001 0.81302696
0.10937726 0.21743265 0.81364244
0.11330469 0.21760623 0.8139931
0.12101971 0.21765894 0.81351423
0.10557621 0.22137031 0.81361884
0.10946579 0.22147489 0.81370085
0.12116217 0.22177958 0.81380719
0.1250314 0.22185591 0.81370592
0.10560304 0.22527263 0.81318754
0.10950474 0.22539897 0.81333756
0.11345904 0.22561784 0.8138209
0.12516515 0.22593835 0.81389928
0.06324634 0.22860214 0.81338513
0.086374469 0.22901811 0.81364697
0.090256155 0.22910379 0.81362849
0.10187267 0.22936943 0.81373388
0.11351391 0.22957869 0.81354666
0.051757 0.23247972 0.81336862
0.074886844 0.23296113 0.81397617
0.082608804 0.23308042 0.81393814
0.071058065 0.23684292 0.81363821
0.074878097 0.23675072 0.81307334
0.078792073 0.23699971 0.8137691
0.067273617 0.24080838 0.8135432
0.071121156 0.24088167 0.81356674
0.074989729 0.24090289 0.81347609
0.086634956 0.24123423 0.81385297
0.075011104 0.24488537 0.81315368
0.078967363 0.245187 0.81390309
0.085958615 0.18967876 0.81484866
0.089814387 0.18974799 0.81495577
0.10131053 0.1898158 0.81462407
0.13607945 0.19035091 0.8142789
0.13992673 0.19037177 0.81405336
0.14397918 0.19068493 0.8149662
0.062983699 0.19325419 0.81430578
0.093612365 0.19352038 0.81409097
0.12065435 0.19401757 0.81440395
0.13232259 0.19429219 0.81458342
0.13613261 0.1942866 0.81418175
0.047694635 0.19699956 0.81400889
0.12455121 0.19796871 0.81413269
0.12842233 0.19802648 0.81401402
0.043931503 0.20106421 0.81474602
0.043943644 0.20875156 0.81407458
0.1287972 0.21015921 0.81473714
0.13272668 0.21028276 0.81481969
0.14055432 0.210493 0.8147881
0.11719834 0.21770227 0.81402737
0.12498394 0.2179094 0.81407267
0.11345295 0.22175957 0.81441802
0.11736941 0.22188853 0.81456238
0.094115444 0.22530115 0.81419706
0.101859 0.22548187 0.81424874
0.11750974 0.2260043 0.8148818
0.12137994 0.22602682 0.81460357
0.094243921 0.2294759 0.81471872
0.098110586 0.22953144 0.81465846
0.10974197 0.2297446 0.81444484
0.1174953 0.22982998 0.81407458
0.12544243 0.23032181 0.81499696
0.059497241 0.23275673 0.81402695
0.06333971 0.23285896 0.81418997
0.098179668 0.23356399 0.81459707
0.10599764 0.23378919 0.8147428
0.10977222 0.23366994 0.81401372
0.051847681 0.23673651 0.81413823
0.055700652 0.2367796 0.81414229
0.059599217 0.23699513 0.814713
0.06339173 0.23688215 0.81412834
0.067282543 0.23700801 0.81442773
0.082725942 0.23722918 0.81428224
0.090529725 0.23756565 0.81489784
0.055764064 0.24089973 0.81435794
0.063507721 0.24113169 0.81485975
0.078904077 0.2411623 0.81410164
0.082841091 0.24146135 0.81480825
0.067371398 0.24509339 0.81423593
0.082868643 0.24537253 0.81424046
0.1873516 0.18797942 0.81503963
0.093756713 0.18998274 0.81577343
0.097604454 0.190061 0.81589293
0.11298329 0.19017909 0.81537735
0.11682561 0.19018662 0.81522554
0.12081026 0.19043893 0.81598598
0.17165181 0.19159129 0.81558746
0.18753904 0.19207099 0.81530625
0.12469491 0.19438954 0.81563926
0.17185503 0.19566643 0.81588668
0.17572813 0.19567762 0.81536698
0.1798207 0.19595377 0.81592405
0.19180524 0.19634891 0.8156516
0.17591481 0.19976988 0.81568122
0.1799259 0.19992641 0.81572175
0.15225178 0.20297632 0.8155545
0.16019712 0.20329596 0.81582206
0.16408722 0.20333855 0.81544483
0.16814446 0.20357911 0.81586051
0.15239216 0.20701741 0.81564647
0.16017435 0.20712157 0.81503171
0.16428673 0.2074457 0.81575418
0.14858533 0.21097028 0.81580919
0.15652108 0.21124983 0.81590831
0.12902676 0.21439372 0.81555527
0.13296649 0.21452342 0.8156476
0.13686047 0.21461202 0.815557
0.12909754 0.21835047 0.81534189
0.14093643 0.21881342 0.81580061
0.098092467 0.22562565 0.81511587
0.12158576 0.23029469 0.81526458
0.08661703 0.23347582 0.8151105
0.090520993 0.23365712 0.81544387
0.094353132 0.23361772 0.81504548
0.11382892 0.2341079 0.81510806
0.086690426 0.2375651 0.8152234
0.094560437 0.23795405 0.81599164
0.048097577 0.24105954 0.81519026
0.051995665 0.24127653 0.8157779
0.059689064 0.24128017 0.81555974
0.090720259 0.24189457 0.81575114
0.052026808 0.2452655 0.81555533
0.086825646 0.24567087 0.8150121
0.090800181 0.24601305 0.81581551
0.11695963 0.18657786 0.81665236
0.14811437 0.18719433 0.81668031
0.17580332 0.18803768 0.81698221
0.18359841 0.18812557 0.81617028
0.19163045 0.18840469 0.81621927
0.066982746 0.18995987 0.81678385
0.082278669 0.19000435 0.8163864
0.10539037 0.19030608 0.81645954
0.10928 0.190382 0.81654215
0.15216401 0.19129784 0.81678867
0.1679019 0.19171259 0.81663871
0.17573802 0.19181402 0.81605911
0.1798809 0.19213837 0.81684995
0.18381602 0.19220227 0.81650585
0.19174939 0.19240561 0.81608331
0.12870476 0.19462483 0.81635672
0.1481885 0.1950191 0.81606382
0.15221195 0.19523233 0.81660604
0.15620464 0.19541876 0.81689996
0.16809598 0.19578514 0.81694794
0.18791007 0.19633806 0.81625491
0.15229422 0.19918406 0.81641483
0.15632255 0.19941634 0.81687611
0.16027579 0.19954139 0.81687099
0.16414651 0.19955783 0.8164205
0.16819845 0.19978637 0.81681067
0.17207351 0.19977072 0.81628239
0.18412438 0.20027795 0.81652993
0.18815134 0.20045809 0.81661099
0.15639381 0.2033616 0.81660712
0.17221105 0.20381758 0.81624001
0.17621058 0.20399603 0.81637764
0.15653579 0.20740667 0.81668007
0.1684738 0.20784469 0.81676883
0.17239003 0.2079284 0.81651664
0.17636065 0.20803937 0.81634444
0.14469709 0.21093827 0.81606126
0.15271057 0.2113508 0.81680268
0.16864648 0.21193093 0.81688881
0.17257454 0.21202542 0.81666714
0.17664495 0.21225291 0.81695658
0.044108227 0.21337034 0.81662124
0.14096433 0.21494709 0.81650114
0.14482844 0.21496911 0.81612998
0.14880407 0.21514848 0.81632948
0.15275353 0.21527931 0.81631756
0.1727764 0.21615477 0.81689757
0.14505182 0.21917491 0.81668895
0.1489422 0.2192222 0.81637937
0.15292858 0.21940213 0.81653684
0.12940563 0.2227491 0.81659865
0.14918298 0.22345951 0.81696314
0.12950474 0.2267772 0.81653392
0.12968978 0.23099354 0.81695652
0.11792393 0.2345655 0.81636018
0.048154313 0.2374694 0.81680328
0.098467931 0.23809911 0.81613457
0.1141917 0.23868111 0.81679302
0.094717264 0.24224705 0.81669772
0.11431953 0.24283716 0.81698048
0.18373396 0.18438846 0.81740403
0.18772663 0.18450353 0.81728166
0.19181386 0.1847281 0.81764299
0.11320556 0.18672204 0.81746089
0.14429265 0.18723257 0.81718242
0.16797313 0.18791898 0.81749189
0.1718289 0.18791746 0.81704265
0.17981979 0.18819445 0.8170796
0.20402926 0.18914144 0.81735551
0.070874773 0.19015621 0.81754059
0.078542992 0.19022171 0.81748515
0.13266657 0.19096102 0.81726336
0.15616082 0.19148847 0.81712174
0.1601847 0.19169985 0.81754196
0.16407324 0.1917146 0.81718183
0.19613793 0.192926 0.81761873
0.047866959 0.19388174 0.81741047
0.16019861 0.19559526 0.81712514
0.16423333 0.1958096 0.81748098
0.18413408 0.19642371 0.81725913
0.19616298 0.19684775 0.81704724
0.044036217 0.1977262 0.81711072
0.19245344 0.2008886 0.81770968
0.18047404 0.2044075 0.81749851
0.18461683 0.20469077 0.81799906
0.16076711 0.21175931 0.81734425
0.16476032 0.21191722 0.81739497
0.18078683 0.21255238 0.81746864
0.15690988 0.21568549 0.8173483
0.16499816 0.21610473 0.81786275
0.16887625 0.21610056 0.81728309
0.17701951 0.21659169 0.81793034
0.044199094 0.21765921 0.8178255
0.13334638 0.21898502 0.81730533
0.13724585 0.21906501 0.81717128
0.15705915 0.21977246 0.81740117
0.1611269 0.22000067 0.81770909
0.16513602 0.22017258 0.81780642
0.13352244 0.22315711 0.81768411
0.1453114 0.22345105 0.81742257
0.15332082 0.22385366 0.81788641
0.16118586 0.22397016 0.81724888
0.16524841 0.22421485 0.81756973
0.048141394 0.22969727 0.81783241
0.12603532 0.23523965 0.81794292
0.12988545 0.23521715 0.81744325
0.13391805 0.23549382 0.81789136
0.10252958 0.23856384 0.8174358
0.11032363 0.23869833 0.81719655
0.11822756 0.23905383 0.81772316
0.11829775 0.24303187 0.81728697
0.063765936 0.24597298 0.81738478
0.17210065 0.18433754 0.81879854
0.17593364 0.18432888 0.81820786
0.17992954 0.18443234 0.81820416
0.20409049 0.18532839 0.81825924
0.2081625 0.18549943 0.81829762
0.15235932 0.18770146 0.818443
0.1602736 0.18793395 0.8185904
0.16415015 0.1879582 0.81819248
0.19615586 0.18904877 0.81834269
0.20034194 0.18932024 0.8188495
0.20847699 0.18965909 0.81886947
0.0747642 0.1903463 0.81813401
0.12509854 0.19113646 0.8186264
0.12888788 0.19106218 0.81807095
0.20031916 0.19319881 0.81807542
0.044135112 0.19423565 0.81889153
0.20064379 0.19742039 0.81871861
0.19672672 0.20129746 0.81869072
0.18084671 0.20873821 0.81847626
0.16104685 0.21600832 0.81803489
0.18929426 0.21728586 0.81848317
0.16928867 0.22052111 0.81850559
0.13762257 0.22355466 0.81870335
0.14154275 0.22364332 0.81859022
0.15744047 0.22416234 0.81849551
0.048146073 0.22585829 0.81850916
0.13380693 0.22750065 0.81869781
0.14171699 0.22781485 0.81885016
0.1456206 0.22782154 0.81840563
0.14961149 0.22799824 0.81854498
0.13393123 0.23161297 0.81872863
0.048212115 0.23387949 0.81840909
0.12214646 0.2352363 0.81832618
0.1223047 0.23942901 0.81863415
0.05607032 0.24607189 0.81808847
0.059941217 0.24616939 0.81823814
0.056173522 0.25041083 0.81882405
0.18010366 0.18075858 0.81959605
0.18419833 0.18094514 0.81995934
0.21244948 0.18194473 0.81974256
0.16836423 0.18447866 0.81997776
0.20028721 0.18539745 0.81928015
0.10186993 0.18701996 0.8195594
0.10957579 0.18705729 0.81921935
0.12908833 0.18747924 0.81970567
0.13286184 0.18740322 0.81900316
0.1368034 0.18752329 0.81915748
0.14072579 0.18761706 0.81928366
0.15649982 0.18805556 0.81950986
0.20464124 0.19361742 0.81914657
0.20894863 0.1939802 0.81992531
0.21290813 0.19406131 0.81939942
0.1930979 0.20547903 0.81972033
0.19709443 0.20556591 0.81937808
0.18515266 0.2092019 0.81965601
0.19731511 0.20969535 0.81953502
0.18522261 0.21317525 0.81922126
0.18940352 0.21350941 0.81973314
0.19345261 0.21368624 0.81974053
0.19754627 0.21387351 0.81973338
0.20166697 0.2140801 0.81979865
0.18548718 0.21740834 0.81961912
0.19772361 0.21800362 0.81967986
0.13784625 0.22781572 0.81932151
0.15376768 0.22840886 0.81952256
0.15776116 0.22852263 0.81938106
0.18206011 0.22973429 0.81994814
0.13798177 0.23191783 0.81936049
0.14196976 0.23205782 0.81940889
0.14591788 0.23216604 0.81931806
0.14988135 0.23231609 0.81925464
0.15793598 0.23268653 0.81950611
0.1461698 0.23648223 0.81994599
0.15403999 0.23660016 0.81922835
0.10675376 0.23935539 0.81985521
0.12637237 0.23978616 0.81936592
0.13037339 0.24001992 0.81976485
0.099005066 0.24330863 0.81991857
0.10292584 0.24339397 0.81991011
0.11069845 0.24341033 0.81925797
0.095194921 0.24732271 0.81991225
0.060089454 0.2506611 0.81946594
0.18822818 0.18110986 0.82010329
0.19650365 0.18158866 0.82095677
0.20045087 0.18165036 0.82057756
0.20851895 0.18191244 0.82033658
0.14867131 0.18405436 0.82032377
0.19641829 0.18543003 0.82008719
0.098110475 0.18719603 0.82054389
0.10587499 0.18733321 0.82069296
0.1214592 0.18761528 0.82087523
0.12527573 0.18756308 0.82032883
0.063423023 0.19078469 0.82050306
0.21295214 0.19018316 0.82026601
0.20508116 0.19795273 0.82019216
0.20921275 0.19814849 0.82026786
0.20115462 0.20181701 0.8200919
0.20543866 0.20219964 0.82079887
0.18909983 0.20538469 0.82003188
0.20131771 0.20590639 0.82001829
0.18935125 0.20955472 0.82037199
0.19337183 0.20966946 0.82015419
0.20150651 0.21003097 0.82002103
0.205833 0.21043722 0.82088351
0.18152331 0.2173461 0.82003206
0.19378281 0.21793258 0.8202427
0.20196399 0.21833944 0.82021081
0.17364085 0.22113213 0.82007796
0.17775193 0.22138844 0.82040375
0.18180145 0.22158878 0.82052034
0.044366244 0.22235076 0.82038587
0.19408707 0.22222064 0.82071787
0.19813497 0.22234909 0.82048333
0.20229642 0.22262208 0.82062888
0.1698954 0.22524713 0.82066226
0.17389451 0.2253658 0.82049263
0.17786489 0.2254405 0.82013559
0.18201727 0.22573543 0.8205784
0.18616652 0.22603847 0.82089889
0.2025694 0.226882 0.82091099
0.162156 0.2331506 0.82058513
0.13826458 0.23630866 0.82027137
0.14227585 0.23647484 0.82039756
0.13843022 0.24044256 0.82032722
0.14240186 0.24060728 0.82031822
0.1069781 0.2437689 0.82087654
0.12268715 0.24410757 0.82043898
0.048479535 0.24685253 0.82098126
0.099127784 0.24746421 0.82002127
0.052359346 0.25073233 0.82005173
0.064073704 0.2510429 0.8205111
0.19250549 0.18149917 0.82120931
0.20472308 0.18199661 0.82142919
0.16082036 0.18471831 0.82197952
0.16462202 0.18464363 0.82112104
0.21309797 0.18641762 0.82160074
0.2136213 0.19861728 0.82144439
0.20981966 0.20265976 0.82192457
0.20576635 0.2064313 0.82136309
0.20988394 0.20666151 0.82142627
0.18614513 0.22209771 0.82175094
0.19020677 0.22228053 0.82164741
0.044444971 0.22659904 0.8213076
0.19049191 0.22651075 0.82192791
0.2069495 0.22735524 0.8218531
0.17420523 0.22968848 0.82114697
0.044466991 0.23059756 0.82115358
0.15428779 0.23306009 0.82135016
0.18270184 0.23444515 0.8218649
0.15052623 0.23720008 0.82183766
0.15840971 0.23730949 0.82115179
0.17066984 0.23803249 0.82179785
0.13455786 0.24051785 0.82103813
0.10329913 0.24813963 0.82195926
0.048527773 0.25101116 0.82111412
0.15301378 0.18465196 0.82251441
0.15697236 0.18473956 0.82254767
0.055887714 0.19127913 0.82283872
0.059745446 0.19127846 0.82268858
0.2142494 0.20706949 0.82227242
0.21033882 0.21103281 0.82232326
0.20636126 0.21490072 0.82208264
0.20670885 0.21922208 0.82266438
0.20690653 0.22334129 0.8225137
0.19465339 0.2268286 0.8222971
0.19877109 0.22702566 0.82226974
0.16236523 0.22952887 0.82243645
0.16644077 0.22975571 0.82269597
0.18670183 0.23062228 0.82242739
0.19085348 0.23090521 0.8226499
0.19503741 0.23118715 0.82293528
0.1706267 0.23407608 0.82257986
0.18689337 0.23479216 0.82229346
0.19101366 0.2350094 0.82235903
0.16672242 0.23799996 0.82230031
0.14670238 0.24127632 0.82211691
0.12695393 0.24480191 0.82236814
0.13094947 0.2449706 0.82241458
0.21487866 0.21163875 0.82390237
0.2109381 0.21557027 0.8238849
0.17074829 0.23030916 0.82397431
0.17875393 0.23050058 0.82341444
0.19938724 0.23167537 0.82385683
0.16672437 0.23410602 0.82326972
0.19540344 0.23556733 0.8234936
0.18332922 0.23922749 0.82380354
0.21451423 0.20337306 0.8240456
0.21141045 0.21999893 0.8248148
0.21152 0.22409034 0.82440424
0.21191931 0.22847129 0.8249889
0.17519154 0.23493354 0.82495254
0.19974443 0.23604451 0.82434207
0.16312604 0.23848881 0.82467049
0.17930122 0.23909505 0.8241114
0.1510804 0.24198943 0.82403624
0.10759484 0.24907635 0.82467294
0.17739156 0.18192518 0.82546377
0.14567468 0.18515879 0.82555085
0.044742554 0.23591529 0.82565105
0.17946927 0.23540114 0.8258853
0.15528546 0.24246186 0.82501566
0.20982794 0.17912726 0.82612783
0.21572155 0.21642055 0.82624257
0.21600349 0.22066119 0.82637566
0.21617506 0.2248264 0.82618707
0.20427044 0.23272441 0.82683587
0.044822332 0.24026242 0.82653016
0.21665646 0.22929925 0.82707655
0.13581015 0.24672133 0.82785743
0.21457747 0.1798244 0.8286016
0.20876357 0.2333224 0.82805675
0.21314037 0.23376949 0.82876492
0.20486 0.23737273 0.82819659
0.17609048 0.24009649 0.82821077
0.17432804 0.18280084 0.82999104
0.1384373 0.18585347 0.8294673
0.14238408 0.18590933 0.82932025
0.21942939 0.18847699 0.82989424
0.21960424 0.19259338 0.82987261
0.21756998 0.23425604 0.82955509
0.16023678 0.24401949 0.82977366
0.20673686 0.17984426 0.83014899
0.095452994 0.18951882 0.8309409
0.17055129 0.18297572 0.83121896
0.18910669 0.2415612 0.8311609
0.11243822 0.25120202 0.83138001
0.16483891 0.24496745 0.8323341
0.20349075 0.18044952 0.83363235
0.22087368 0.19769774 0.83398253
0.1409446 0.24880654 0.83438879
0.16740415 0.18379077 0.8354513
0.04540186 0.25131074 0.83593303
0.20007604 0.18092412 0.83651584
0.13568024 0.18742473 0.83676106
0.22272912 0.20738822 0.83938956
0.21287641 0.24197263 0.84334987
