# .PCD v0.7 - Point Cloud Data file format
VERSION 0.7
FIELDS x y z
SIZE 4 4 4
TYPE F F F
COUNT 1 1 1
WIDTH 1349
HEIGHT 1
VIEWPOINT 0 0 0 1 0 0 0
POINTS 1349
DATA ascii
0.011595729 -0.15298712 0.80052549
0.013769405 -0.15290485 0.80009502
0.015958168 -0.15298972 0.80053902
0.018141912 -0.15301184 0.80065483
0.020323878 -0.15301584 0.80067575
0.022489883 -0.15291053 0.8001247
0.024644988 -0.15275626 0.79931748
0.026800374 -0.15262865 0.79864973
0.028970584 -0.15259829 0.79849088
0.031176187 -0.15274557 0.79926157
0.033336237 -0.15266502 0.79884005
0.035540555 -0.15278465 0.79946595
0.037739895 -0.1528703 0.79991418
0.040018111 -0.15324865 0.80189395
0.042170823 -0.15313208 0.80128396
0.044410102 -0.15332586 0.80229795
0.046613101 -0.15338208 0.80259216
0.048889901 -0.15366523 0.80407375
0.051037494 -0.1535354 0.80339438
0.053326834 -0.15382512 0.80491042
0.055619702 -0.15410173 0.8063578
0.058252789 -0.15526412 0.81244016
0.061774764 -0.15862387 0.83002055
-0.0410273 -0.16041724 0.85154468
-0.037996083 -0.15747003 0.83590001
-0.035342671 -0.15581262 0.82710195
-0.032826364 -0.15457506 0.82053262
-0.030410681 -0.15366508 0.81570214
-0.028082438 -0.15308829 0.81264031
-0.025831787 -0.15287192 0.81149179
-0.023605103 -0.15277019 0.81095177
-0.021385988 -0.15270147 0.81058699
-0.019172391 -0.15266088 0.81037146
-0.016940599 -0.15244594 0.80923057
-0.014714531 -0.15222593 0.80806267
-0.012504744 -0.1521266 0.80753535
-0.010308129 -0.15217926 0.8078149
-0.008090036 -0.15185736 0.80610621
-0.0058920863 -0.15181458 0.80587912
-0.0036932854 -0.15168601 0.80519658
-0.0015005477 -0.15179458 0.8057729
0.00069375546 -0.15155913 0.80452305
0.0028827221 -0.15140109 0.80368412
0.0050699841 -0.15132862 0.80329949
0.0072622527 -0.15140422 0.80370075
0.0094572259 -0.15148814 0.80414623
0.01164024 -0.15138493 0.8035984
0.013809531 -0.15116419 0.80242658
0.015988147 -0.1510919 0.8020429
0.018180365 -0.15115011 0.80235183
0.020387553 -0.15130691 0.80318427
0.022568993 -0.15126075 0.80293918
0.024747623 -0.15120558 0.80264634
0.026896155 -0.15099038 0.80150402
0.029055657 -0.15086448 0.80083567
0.031294268 -0.15113823 0.80228883
0.033463042 -0.15106098 0.80187875
0.035671648 -0.15116198 0.80241489
0.037845515 -0.15111262 0.80215287
0.040094875 -0.15135361 0.80343211
0.042288672 -0.15137076 0.80352318
0.04454536 -0.15160027 0.8047415
0.046785336 -0.15175404 0.80555773
0.049057823 -0.15199475 0.80683547
0.051212326 -0.15186495 0.80614644
0.05352179 -0.15218644 0.80785304
0.055895291 -0.15265743 0.81035322
0.05861577 -0.15400426 0.81750262
0.062421665 -0.15799986 0.83871245
-0.043509427 -0.15868813 0.85472786
-0.040335745 -0.15543225 0.83719105
-0.037582394 -0.15350288 0.82679904
-0.035129875 -0.15263456 0.82212204
-0.032677062 -0.1516466 0.81680065
-0.030348111 -0.15113105 0.81402385
-0.028049568 -0.15069759 0.81168914
-0.025837254 -0.15069285 0.81166357
-0.023603216 -0.15054865 0.81088692
-0.021372903 -0.15040089 0.81009102
-0.019148842 -0.15026815 0.80937606
-0.016933361 -0.15017696 0.80888486
-0.014734418 -0.15022707 0.80915481
-0.01250267 -0.14990154 0.80740142
-0.010294777 -0.14978406 0.80676866
-0.0080747856 -0.14937896 0.80458665
-0.0058814487 -0.1493488 0.80442423
-0.0036883568 -0.14929269 0.80412209
-0.0014977718 -0.14932245 0.80428231
0.0006930955 -0.14922504 0.80375767
0.0028802459 -0.14908323 0.80299383
0.0050616567 -0.14889501 0.80198002
0.0072462694 -0.14888607 0.80193192
0.0094320551 -0.14889981 0.80200589
0.011619901 -0.14893478 0.8021943
0.013803804 -0.14891614 0.80209386
0.015988126 -0.14890648 0.80204189
0.018172897 -0.14890285 0.80202228
0.020365899 -0.1489602 0.80233121
0.022536252 -0.14885683 0.80177438
0.024719402 -0.14884877 0.80173099
0.02684807 -0.1485406 0.80007112
0.029036656 -0.14858532 0.80031198
0.031258009 -0.14877976 0.8013593
0.033435713 -0.14875463 0.80122387
0.035615601 -0.14874168 0.80115414
0.037811689 -0.14879398 0.80143589
0.040058997 -0.14903113 0.80271322
0.042283535 -0.1491634 0.80342561
0.04449274 -0.14923121 0.80379087
0.046716537 -0.1493393 0.80437315
0.048927344 -0.14939806 0.80468959
0.051140886 -0.14945975 0.80502188
0.053477678 -0.14986177 0.8071872
0.055964991 -0.15063716 0.8113637
0.058819469 -0.15230437 0.82034355
0.062868118 -0.15682842 0.84471107
-0.046254922 -0.15778089 0.86249846
-0.042881973 -0.15410449 0.84240168
-0.040070716 -0.152145 0.83169025
-0.037512422 -0.15096863 0.82525969
-0.035110794 -0.15031295 0.82167548
-0.032750893 -0.14975877 0.81864613
-0.0304677 -0.14950001 0.8172316
-0.028198805 -0.14927611 0.81600767
-0.025942266 -0.1490849 0.81496245
-0.023685995 -0.14885959 0.81373084
-0.021432957 -0.14861014 0.81236726
-0.019196941 -0.14843488 0.81140912
-0.017003106 -0.14858255 0.8122164
-0.014795338 -0.14863449 0.8125003
-0.012553681 -0.14830434 0.81069559
-0.010320127 -0.14794937 0.80875516
-0.0080988612 -0.14762565 0.80698556
-0.0059019993 -0.14767127 0.80723494
-0.0037023206 -0.14765874 0.8071664
-0.0015038492 -0.14772813 0.80754572
0.00069663848 -0.14778678 0.80786633
0.0028953229 -0.14766435 0.80719715
0.005090768 -0.14755374 0.80659246
0.0072798328 -0.14738065 0.8056463
0.0094677862 -0.14727049 0.80504411
0.011655722 -0.14720154 0.80466717
0.013854049 -0.14726488 0.80501342
0.016056735 -0.14735089 0.80548364
0.018238872 -0.14725032 0.80493391
0.020424219 -0.1471945 0.80462873
0.022606898 -0.14713213 0.80428773
0.024828985 -0.14731459 0.80528516
0.027004518 -0.14721362 0.80473322
0.029192772 -0.14719196 0.80461484
0.03137929 -0.14716519 0.80446851
0.033561852 -0.14712457 0.80424649
0.035733219 -0.14704287 0.80379987
0.037978735 -0.14725812 0.80497646
0.040162399 -0.14722313 0.80478519
0.042442247 -0.14752607 0.80644125
0.044621281 -0.14746603 0.80611306
0.046898652 -0.14772138 0.80750883
0.049095482 -0.1477115 0.80745482
0.051362757 -0.14790533 0.80851442
0.053734958 -0.14837293 0.81107056
0.056274097 -0.14924635 0.81584501
0.059364777 -0.15146057 0.82794887
-0.048895452 -0.15636024 0.86765516
-0.045443591 -0.15270463 0.84736991
-0.042517412 -0.1505187 0.83524007
-0.039869137 -0.14912501 0.82750636
-0.037370872 -0.14815895 0.82214564
-0.034967389 -0.14746945 0.8183195
-0.032652628 -0.14708568 0.81618994
-0.030408196 -0.14698577 0.8156355
-0.028189911 -0.14700645 0.8157503
-0.025943648 -0.14687231 0.8150059
-0.023692528 -0.14668296 0.81395525
-0.021431716 -0.14638832 0.81232023
-0.0191912 -0.14618041 0.81116647
-0.0169762 -0.146138 0.81093121
-0.014766376 -0.14613415 0.81090981
-0.012521972 -0.14572653 0.80864787
-0.010308315 -0.14557904 0.8078295
-0.0080981003 -0.14541329 0.80690974
-0.0058986587 -0.14538957 0.80677807
-0.003696162 -0.14521758 0.80582374
-0.001500484 -0.14520226 0.80573869
0.00069521868 -0.14528897 0.80621988
0.0028928195 -0.14533933 0.80649924
0.0050886632 -0.14529602 0.80625898
0.0072806226 -0.14520137 0.80573374
0.0094613507 -0.14497848 0.80449694
0.011637098 -0.14477748 0.8033815
0.013840456 -0.14492922 0.80422354
0.01603676 -0.14497572 0.80448163
0.018221073 -0.14491569 0.80414844
0.020372299 -0.14463364 0.80258334
0.022555999 -0.14461446 0.80247694
0.024770049 -0.14477606 0.80337369
0.026977237 -0.14487456 0.80392027
0.0291906 -0.14498895 0.804555
0.031375967 -0.14495802 0.80438334
0.033577669 -0.14500165 0.80462551
0.035745703 -0.14490347 0.80408067
0.037955564 -0.14497641 0.80448538
0.040126804 -0.1449019 0.80407196
0.042389501 -0.14514826 0.80543905
0.044546563 -0.14502646 0.8047632
0.046816755 -0.14526714 0.8060987
0.049026325 -0.14530656 0.80631745
0.051430762 -0.14589539 0.80958492
0.053847857 -0.14647022 0.81277466
0.056472804 -0.14754267 0.81872582
0.059863731 -0.1504588 0.83490765
-0.048183639 -0.15175441 0.85502398
-0.045202684 -0.14959863 0.84287781
-0.042528734 -0.14828251 0.83546245
-0.039953388 -0.1471808 0.82925504
-0.037515093 -0.14648211 0.82531846
-0.035112545 -0.14584281 0.82171649
-0.032834686 -0.14566961 0.82074064
-0.030550972 -0.14544323 0.81946516
-0.028248204 -0.14508329 0.81743717
-0.025982594 -0.14486893 0.81622934
-0.023738924 -0.1447482 0.81554919
-0.021520929 -0.14477526 0.81570166
-0.019255577 -0.14445329 0.81388754
-0.017014768 -0.14425556 0.81277353
-0.014799543 -0.14424805 0.81273121
-0.012564733 -0.14401343 0.81140929
-0.010347075 -0.14391719 0.81086701
-0.0081305886 -0.14378938 0.81014693
-0.0059223473 -0.14376649 0.810018
-0.0037151303 -0.14375605 0.80995911
-0.0015079572 -0.14371923 0.80975169
0.00069835945 -0.14373882 0.80986208
0.002903658 -0.14367826 0.8095209
0.0051088985 -0.14366837 0.80946511
0.0073066093 -0.14351653 0.8086096
0.0094959391 -0.14330858 0.80743796
0.011678405 -0.14309475 0.80623317
0.01389216 -0.1432713 0.80722791
0.016091622 -0.14327234 0.80723381
0.018296041 -0.14331193 0.80745691
0.020469163 -0.14312424 0.80639935
0.022667287 -0.14313078 0.80643618
0.024879901 -0.14321958 0.8069365
0.027091933 -0.14329086 0.80733818
0.029298259 -0.14332354 0.8075223
0.0314865 -0.14326937 0.80721706
0.033741809 -0.14350753 0.80855888
0.035943266 -0.14350148 0.80852479
0.03815541 -0.14353634 0.80872124
0.040288974 -0.14328791 0.80732155
0.042525485 -0.14341238 0.80802286
0.044687517 -0.1432858 0.80730963
0.046944585 -0.14346151 0.80829966
0.049220242 -0.14367574 0.80950671
0.051650167 -0.14430261 0.81303859
0.054133683 -0.14502148 0.8170889
0.056815889 -0.14619482 0.82369977
0.060504939 -0.14977127 0.84385049
-0.047779635 -0.14817195 0.84785485
-0.044966023 -0.14653094 0.83846486
-0.042414054 -0.14561254 0.83320963
-0.039883759 -0.14466886 0.82780981
-0.037473746 -0.14407448 0.82440877
-0.035090696 -0.14351462 0.82120514
-0.032806456 -0.14331011 0.82003498
-0.030508302 -0.14301051 0.81832063
-0.02818523 -0.14253765 0.81561488
-0.025930991 -0.14236175 0.81460828
-0.023686873 -0.14221366 0.81376094
-0.021497412 -0.14239705 0.81481028
-0.019229826 -0.14204556 0.81279904
-0.01698189 -0.14176664 0.811203
-0.014771117 -0.1417609 0.81117016
-0.012549797 -0.14163412 0.81044477
-0.010340188 -0.14161359 0.81032729
-0.0081213098 -0.1414205 0.80922234
-0.0059116706 -0.14130434 0.80855775
-0.0037109402 -0.14138961 0.80904561
-0.0015053883 -0.14127192 0.8083722
0.00069699995 -0.14125678 0.80828553
0.0028957785 -0.14108877 0.80732417
0.0050948514 -0.14107396 0.80723947
0.0072864885 -0.14092426 0.80638289
0.009479872 -0.14086989 0.80607176
0.011658482 -0.14065774 0.80485779
0.013867176 -0.14081824 0.80577618
0.016055627 -0.1407574 0.80542803
0.018266952 -0.14088762 0.80617321
0.020437663 -0.14071026 0.80515838
0.022620719 -0.14064404 0.80477947
0.024811141 -0.14063127 0.80470639
0.027041461 -0.14082836 0.80583411
0.029254837 -0.14091423 0.8063255
0.031496078 -0.14111295 0.80746257
0.033703487 -0.14114405 0.80764055
0.035939299 -0.14128298 0.8084355
0.038079757 -0.14105268 0.8071177
0.040288419 -0.14108635 0.8073104
0.042451091 -0.14096384 0.80660933
0.0446615 -0.14100409 0.80683964
0.046835344 -0.14093053 0.80641878
0.049115948 -0.14117043 0.80779147
0.051543947 -0.14179522 0.81136656
0.054104254 -0.14271763 0.81664467
0.056940347 -0.14426591 0.82550412
0.060889553 -0.14840958 0.84921461
-0.047656633 -0.14548641 0.84567219
-0.044935193 -0.14414759 0.83788997
-0.042398084 -0.14328843 0.83289587
-0.039982632 -0.14276649 0.829862
-0.037601084 -0.14231028 0.82721019
-0.035261948 -0.14196667 0.82521284
-0.032950208 -0.14169405 0.82362825
-0.03064636 -0.14141802 0.82202375
-0.02829317 -0.14085282 0.8187384
-0.02600771 -0.14055692 0.81701833
-0.023752779 -0.14038604 0.81602514
-0.021552999 -0.14053951 0.81691718
-0.019297652 -0.14032425 0.81566596
-0.017053878 -0.14014806 0.81464177
-0.014837398 -0.14017701 0.8148101
-0.012612206 -0.14011937 0.81447506
-0.010382948 -0.13998228 0.81367821
-0.0081560966 -0.13981204 0.81268859
-0.0059391726 -0.1397485 0.81231928
-0.0037306501 -0.13992457 0.81334269
-0.0015120984 -0.13968934 0.81197542
0.00069968239 -0.13958971 0.81139624
0.0029069434 -0.13942467 0.8104369
0.0051159575 -0.13944991 0.81058359
0.007311821 -0.13920954 0.8091864
0.00951098 -0.13912876 0.80871689
0.011699525 -0.1389523 0.80769116
0.013914067 -0.1390916 0.80850089
0.01611241 -0.139053 0.80827653
0.01833814 -0.13923164 0.80931491
0.020539422 -0.13920625 0.80916727
0.022742178 -0.13919477 0.80910063
0.024943439 -0.13917699 0.80899727
0.02717009 -0.13929227 0.80966729
0.029375561 -0.1392898 0.80965292
0.031595968 -0.13935354 0.81002349
0.033782728 -0.13927026 0.80953938
0.036034185 -0.13944755 0.81056994
0.038226102 -0.13938728 0.81021959
0.040485427 -0.13956594 0.81125814
0.042626079 -0.1393382 0.80993426
0.044861197 -0.13942645 0.81044728
0.047015689 -0.13926761 0.809524
0.049352795 -0.13963969 0.81168681
0.051688589 -0.13997631 0.81364346
0.054314829 -0.14103943 0.81982309
0.057239547 -0.14276302 0.82984185
0.061479058 -0.14751028 0.8574363
-0.047574077 -0.14293429 0.84420723
-0.044827797 -0.14152566 0.83588743
-0.042315092 -0.14074311 0.83126551
-0.039950162 -0.14039136 0.82918805
-0.037577994 -0.13997048 0.82670224
-0.035235334 -0.13961287 0.82459003
-0.032882143 -0.13916196 0.82192689
-0.030586751 -0.13890766 0.82042485
-0.028313242 -0.13872045 0.81931925
-0.026040684 -0.13850626 0.8180542
-0.023789739 -0.13837773 0.81729496
-0.02155431 -0.13832216 0.81696683
-0.019309897 -0.13818954 0.81618351
-0.017071214 -0.13806871 0.81546986
-0.014832956 -0.1379157 0.81456614
-0.012605596 -0.13782801 0.81404823
-0.010378521 -0.13770664 0.81333137
-0.008158138 -0.13763225 0.81289202
-0.0059371074 -0.13748746 0.81203681
-0.0037252877 -0.13751061 0.8121736
-0.001509133 -0.13720746 0.81038308
0.00069834758 -0.13711691 0.80984831
0.0029015343 -0.13696124 0.80892885
0.0051072729 -0.13700843 0.80920756
0.0073052971 -0.1368826 0.80846441
0.0095078666 -0.13688053 0.80845213
0.011708133 -0.13685231 0.80828547
0.013930292 -0.13704839 0.80944359
0.016135575 -0.13704756 0.80943865
0.018343804 -0.13706893 0.80956489
0.020508949 -0.13679834 0.80796671
0.022700995 -0.13674225 0.80763543
0.024897365 -0.13671981 0.80750293
0.027153008 -0.13700007 0.80915821
0.029368281 -0.13704987 0.8094523
0.031600665 -0.13716698 0.81014395
0.033751953 -0.13693975 0.80880189
0.035978112 -0.13702555 0.80930865
0.038164388 -0.1369583 0.8089115
0.040421955 -0.13714027 0.80998623
0.042575318 -0.13696817 0.80896974
0.044825476 -0.13710907 0.809802
0.04700033 -0.13701724 0.80925953
0.04934058 -0.13739417 0.81148589
0.051646125 -0.1376463 0.81297499
0.054307647 -0.13878742 0.81971473
0.057405815 -0.14091018 0.83225232
-0.04770007 -0.14100665 0.846443
-0.044894557 -0.1394556 0.83713228
-0.042380985 -0.13869391 0.83256
-0.040066853 -0.13853566 0.83161002
-0.037735939 -0.13829693 0.83017695
-0.035447013 -0.13819146 0.82954383
-0.033086035 -0.13777159 0.82702339
-0.030754926 -0.13742383 0.82493579
-0.02841921 -0.136999 0.82238567
-0.02613592 -0.13677584 0.82104599
-0.023901887 -0.13679278 0.82114774
-0.021665862 -0.13680065 0.82119495
-0.019416189 -0.13671423 0.82067621
-0.017169548 -0.13662943 0.82016718
-0.014916165 -0.13645758 0.81913561
-0.012672407 -0.13632883 0.81836271
-0.010430572 -0.13617019 0.81741041
-0.0081963278 -0.13605139 0.8166973
-0.0059574703 -0.13573897 0.8148219
-0.0037370583 -0.13572529 0.81473976
-0.0015165271 -0.13566098 0.81435364
0.00070182205 -0.13558166 0.81387758
0.0029141454 -0.13534297 0.81244475
0.005123714 -0.13523765 0.81181252
0.0073418096 -0.13535304 0.81250519
0.0095629785 -0.13545851 0.81313831
0.011778417 -0.13545839 0.81313759
0.013990632 -0.1354271 0.81294978
0.016192103 -0.13531458 0.81227434
0.018418323 -0.13541108 0.81285363
0.020622002 -0.13533895 0.81242055
0.022845846 -0.13540028 0.81278878
0.025052426 -0.13535751 0.81253207
0.027290631 -0.13547868 0.81325936
0.029483825 -0.13537498 0.81263691
0.031667024 -0.13524309 0.81184518
0.033851888 -0.13513505 0.81119668
0.036098111 -0.13527021 0.81200796
0.038373053 -0.13549116 0.81333429
0.040630642 -0.13563004 0.81416798
0.042840123 -0.13560227 0.81400126
0.045049522 -0.13557699 0.81384951
0.047241297 -0.13550352 0.81340849
0.049572881 -0.1358197 0.81530648
0.051894527 -0.13608269 0.81688517
0.054586664 -0.13725562 0.82392615
0.057900067 -0.13983636 0.83941787
-0.047815669 -0.13903658 0.84849429
-0.044886809 -0.13715109 0.83698779
-0.042346064 -0.13631313 0.83187395
-0.040008951 -0.13607295 0.83040822
-0.037682772 -0.1358434 0.82900733
-0.035392057 -0.13572055 0.82825768
-0.033061292 -0.13541695 0.82640493
-0.030727852 -0.13505723 0.82420963
-0.028401129 -0.13467261 0.82186246
-0.026121831 -0.13446631 0.82060337
-0.023885719 -0.13446449 0.82059234
-0.021652278 -0.13447887 0.82068008
-0.019396281 -0.13434035 0.81983471
-0.017155124 -0.13428192 0.81947815
-0.014897526 -0.13405807 0.81811208
-0.012648209 -0.13384308 0.81680006
-0.010411279 -0.13369535 0.81589854
-0.0081760352 -0.1334949 0.81467527
-0.0059486157 -0.13332048 0.81361085
-0.0037314182 -0.13330398 0.81351012
-0.0015155285 -0.13335434 0.81381738
0.00070146687 -0.1332967 0.81346565
0.0029123402 -0.13304694 0.8119415
0.0051189288 -0.13290158 0.81105435
0.0073306705 -0.13293731 0.81127244
0.0095459139 -0.13300529 0.81168735
0.011766807 -0.13311161 0.81233615
0.013981706 -0.13312717 0.8124311
0.016182259 -0.13302058 0.81178057
0.018404702 -0.1330979 0.81225246
0.020580284 -0.13285613 0.81077707
0.02279056 -0.13286348 0.81082189
0.024973402 -0.13272373 0.80996907
0.027222726 -0.13293131 0.81123585
0.029417928 -0.13286327 0.81082064
0.031619847 -0.13283296 0.81063563
0.033825919 -0.13282293 0.81057441
0.036068384 -0.13294826 0.81133926
0.038324539 -0.13310666 0.81230599
0.040541217 -0.13311815 0.81237608
0.042749807 -0.13310327 0.81228518
0.044986099 -0.13317184 0.81270373
0.047243729 -0.13329419 0.8134504
0.049547333 -0.13352948 0.81488627
0.051895499 -0.13385953 0.81690043
0.054569442 -0.13496819 0.82366621
0.058183108 -0.1382217 0.8435213
-0.048102088 -0.1375438 0.85357684
-0.045061763 -0.13539636 0.84025013
-0.042494878 -0.13451771 0.83479738
-0.040125225 -0.13419934 0.83282161
-0.037788577 -0.13395979 0.83133495
-0.035490777 -0.13383621 0.83056802
-0.033177231 -0.13363236 0.82930297
-0.030842936 -0.13330904 0.8272965
-0.028481405 -0.13280773 0.82418549
-0.026216345 -0.13270897 0.82357252
-0.023976574 -0.13273169 0.8237136
-0.021736016 -0.13275433 0.82385403
-0.01946214 -0.13255522 0.82261842
-0.01721503 -0.13251033 0.82233983
-0.014956131 -0.13234767 0.82133037
-0.012707141 -0.13223091 0.82060581
-0.010454269 -0.13201526 0.81926751
-0.0082114171 -0.13184337 0.81820083
-0.0059737656 -0.13165805 0.8170507
-0.0037487757 -0.13169731 0.81729436
-0.0015229889 -0.13178258 0.81782353
0.00070444279 -0.13163647 0.81691676
0.0029231238 -0.13131921 0.8149479
0.0051340191 -0.13107708 0.81344533
0.0073559978 -0.1311786 0.81407535
0.0095866285 -0.13135166 0.81514931
0.011805085 -0.13132417 0.81497872
0.014007682 -0.13115688 0.81394053
0.016187724 -0.130853 0.81205469
0.018430013 -0.13106486 0.81336951
0.020650823 -0.13109492 0.81355596
0.022895463 -0.13125575 0.81455404
0.025079444 -0.13107114 0.81340837
0.0273066 -0.1311238 0.81373525
0.029496476 -0.13100301 0.8129856
0.031699892 -0.13095503 0.81268781
0.033922769 -0.13098843 0.81289518
0.036204237 -0.13123015 0.81439519
0.038470592 -0.13139233 0.81540167
0.040693097 -0.13139521 0.8154195
0.042856399 -0.13121651 0.81431055
0.04511163 -0.13132301 0.81497151
0.047413375 -0.13154858 0.81637138
0.049705405 -0.1317282 0.81748605
0.052069277 -0.13207462 0.81963593
0.054721255 -0.1330933 0.82595766
0.058611851 -0.13692507 0.84973711
-0.048156813 -0.135372 0.85454792
-0.04511841 -0.13327436 0.84130639
-0.042455185 -0.13211973 0.83401763
-0.040088717 -0.13181022 0.83206385
-0.037717532 -0.13144717 0.829772
-0.035401236 -0.13124131 0.82847255
-0.03309878 -0.13106221 0.82734197
-0.03078728 -0.13081852 0.82580364
-0.028496098 -0.13062954 0.82461065
-0.02621294 -0.13044813 0.82346553
-0.023965523 -0.13042729 0.82333398
-0.021716721 -0.13039382 0.82312268
-0.019445734 -0.1302041 0.82192504
-0.01717883 -0.12999585 0.82061052
-0.014915688 -0.12975806 0.81910944
-0.012676315 -0.12967977 0.81861514
-0.010431984 -0.12950644 0.81752104
-0.0081952233 -0.12935852 0.81658721
-0.0059700343 -0.12935108 0.8165403
-0.0037469002 -0.12940577 0.81688547
-0.0015212469 -0.12940617 0.81688803
0.00070353341 -0.12924366 0.81586218
0.0029190644 -0.12891953 0.81381613
0.0051286002 -0.12872478 0.81258672
0.0073467158 -0.12879787 0.81304812
0.0095769297 -0.12900008 0.81432456
0.011791958 -0.12896015 0.81407249
0.013998214 -0.12885208 0.81339037
0.016185971 -0.12862657 0.81196678
0.018412951 -0.12872951 0.81261653
0.020608073 -0.12861153 0.81187183
0.022843614 -0.12874421 0.81270945
0.025027109 -0.12858604 0.81171095
0.027229989 -0.12854506 0.81145227
0.029444823 -0.12856244 0.81156194
0.031672202 -0.12862834 0.81197792
0.033925872 -0.12878543 0.81296957
0.036173675 -0.12890236 0.81370771
0.038395245 -0.12891771 0.81380463
0.040597249 -0.12886928 0.81349885
0.042754304 -0.12869056 0.81237066
0.0450617 -0.12895967 0.81406951
0.047404956 -0.12930135 0.81622642
0.049689278 -0.12945887 0.81722081
0.052057508 -0.12981212 0.81945068
0.054751325 -0.13091482 0.82641155
0.058776014 -0.13498692 0.85211706
-0.048518941 -0.1340442 0.86097395
-0.045380548 -0.13174318 0.84619439
-0.042613748 -0.13033235 0.83713251
-0.040163253 -0.12978406 0.83361083
-0.037815381 -0.12952153 0.83192462
-0.035502538 -0.12935318 0.83084327
-0.03320593 -0.12922506 0.83002031
-0.030886697 -0.12898374 0.82847029
-0.02858782 -0.12879607 0.8272649
-0.026304051 -0.12865016 0.82632774
-0.024031401 -0.12853642 0.82559717
-0.021768617 -0.12845741 0.82508963
-0.019502947 -0.1283412 0.82434326
-0.017242858 -0.12823625 0.82366914
-0.014987128 -0.12813716 0.82303262
-0.012743475 -0.12812462 0.82295215
-0.010482045 -0.12788984 0.82144415
-0.008230675 -0.12768364 0.82011968
-0.0059899981 -0.12755148 0.81927085
-0.0037602661 -0.12763378 0.81979948
-0.0015262523 -0.12759897 0.81957591
0.00070560945 -0.12739561 0.81826967
0.0029251229 -0.12696521 0.81550521
0.0051447321 -0.12690878 0.81514269
0.0073779235 -0.12712038 0.81650186
0.0096245212 -0.12741144 0.8183713
0.011838679 -0.12724431 0.81729788
0.014039159 -0.12700637 0.81576949
0.01624484 -0.12687409 0.81491989
0.018476574 -0.12695263 0.81542438
0.020704281 -0.12698963 0.81566203
0.022938093 -0.12705325 0.81607068
0.025159739 -0.1270442 0.81601256
0.027378079 -0.12702128 0.81586534
0.02961845 -0.12709634 0.81634742
0.031826582 -0.12703225 0.81593573
0.034042116 -0.12700413 0.81575513
0.036264163 -0.12700225 0.81574315
0.038510565 -0.12708099 0.81624889
0.040757068 -0.12715144 0.81670135
0.042954627 -0.1270698 0.81617695
0.045238696 -0.12723951 0.81726706
0.047565103 -0.12750681 0.81898385
0.049845945 -0.12763347 0.81979746
0.052253507 -0.12805982 0.82253593
0.055016082 -0.12928538 0.83040774
0.059219535 -0.13366637 0.85854709
-0.048797626 -0.13245487 0.86591923
-0.045470178 -0.12969331 0.8478657
-0.042585779 -0.12796748 0.83658308
-0.040051345 -0.12715754 0.83128816
-0.037685089 -0.12681645 0.82905829
-0.035392806 -0.12669666 0.8282752
-0.033152673 -0.12675998 0.8286891
-0.030839607 -0.1265333 0.82720721
-0.028571244 -0.12646875 0.82678521
-0.026274901 -0.1262587 0.82541198
-0.023994779 -0.12609458 0.82433909
-0.021724727 -0.12595493 0.82342613
-0.019479422 -0.12594311 0.82334888
-0.017225403 -0.12586457 0.82283533
-0.014972056 -0.12576814 0.82220495
-0.012722488 -0.12567511 0.82159686
-0.010469683 -0.12550358 0.82047546
-0.0082122441 -0.12516825 0.81828326
-0.0059788632 -0.12508637 0.81774789
-0.003751759 -0.12511648 0.81794477
-0.0015235764 -0.1251462 0.81813902
0.00070465368 -0.12499663 0.81716126
0.0029267403 -0.12481228 0.81595612
0.0051506511 -0.12483131 0.81608051
0.0073802141 -0.12493454 0.81675535
0.0096021583 -0.12489086 0.81646979
0.011816232 -0.12478049 0.81574827
0.014022688 -0.12463735 0.81481248
0.016261403 -0.12478088 0.81575078
0.01847891 -0.12474672 0.8155275
0.020683955 -0.12464481 0.81486124
0.022872979 -0.12447546 0.81375414
0.025080858 -0.12442958 0.81345421
0.027301647 -0.12445 0.81358767
0.029571768 -0.12467533 0.81506079
0.031800542 -0.12470704 0.8152681
0.034007039 -0.12465297 0.81491458
0.036195148 -0.12454224 0.81419069
0.038425218 -0.12458037 0.81443995
0.040697679 -0.12474424 0.81551129
0.042951602 -0.12483728 0.81611949
0.045269318 -0.12509744 0.81782025
0.047553778 -0.1252456 0.81878889
0.049817923 -0.12532938 0.81933659
0.052244812 -0.12579782 0.82239908
0.055162251 -0.12736034 0.832614
0.059297036 -0.13149907 0.8596707
-0.045757696 -0.12818873 0.8532269
-0.042843658 -0.12644927 0.84164906
-0.040243547 -0.12549199 0.83527744
-0.037850469 -0.12510425 0.83269656
-0.035510585 -0.1248541 0.83103156
-0.033244886 -0.12484846 0.83099407
-0.030920248 -0.12460451 0.82937026
-0.028639659 -0.12451357 0.82876498
-0.026338253 -0.12430882 0.82740217
-0.02406144 -0.12419268 0.82662916
-0.021766739 -0.12395069 0.82501847
-0.019534774 -0.12405136 0.82568854
-0.017284883 -0.12404957 0.82567656
-0.015040291 -0.12409096 0.82595211
-0.012782035 -0.12401438 0.82544237
-0.010514186 -0.1237921 0.82396293
-0.0082494533 -0.12349582 0.82199085
-0.006001276 -0.12331892 0.82081336
-0.0037665744 -0.12337322 0.8211748
-0.0015297848 -0.12341799 0.82147276
0.00070738804 -0.12324663 0.82033223
0.0029390717 -0.12310568 0.81939405
0.0051720105 -0.1231163 0.81946474
0.0074073025 -0.12315963 0.81975317
0.0096312854 -0.12303843 0.81894648
0.011852106 -0.12293002 0.81822485
0.014072444 -0.12285171 0.8177036
0.016324775 -0.12303594 0.81892985
0.018544517 -0.12295979 0.81842297
0.020766834 -0.12291522 0.81812632
0.022950234 -0.12267128 0.81650263
0.025190176 -0.12274596 0.81699973
0.027439492 -0.12285048 0.81769544
0.029702378 -0.1229955 0.81866068
0.031890538 -0.12283244 0.81757534
0.034086756 -0.12271968 0.81682485
0.036313515 -0.12272397 0.81685334
0.03857271 -0.12283105 0.8175661
0.04081931 -0.12288851 0.81794858
0.043082342 -0.12298693 0.81860363
0.045394324 -0.12320853 0.82007861
0.047681239 -0.12334448 0.82098353
0.049938116 -0.12339403 0.82131332
0.052420478 -0.12397259 0.82516426
0.055426624 -0.12569137 0.83660442
0.059732247 -0.1301048 0.86598027
-0.045844365 -0.12610245 0.85484302
-0.042898398 -0.12431476 0.84272438
-0.040286146 -0.12334666 0.83616161
-0.037844956 -0.12281761 0.83257526
-0.035475861 -0.12247002 0.83021897
-0.033173613 -0.12232156 0.82921255
-0.030872244 -0.12215488 0.82808262
-0.028605362 -0.12210913 0.8277725
-0.026300922 -0.12188151 0.82622945
-0.024035785 -0.12181047 0.82574785
-0.021756209 -0.12164401 0.82461941
-0.019517472 -0.12169383 0.82495719
-0.017256133 -0.12159736 0.82430321
-0.014998119 -0.12149896 0.82363623
-0.012743668 -0.12139989 0.82296461
-0.010486674 -0.12122912 0.82180697
-0.0082351044 -0.12104534 0.82056111
-0.0059950538 -0.12095701 0.81996232
-0.0037597527 -0.12091648 0.81968755
-0.001527168 -0.12097254 0.82006758
0.00070653151 -0.12086505 0.81933892
0.0029397774 -0.1209022 0.81959081
0.0051695816 -0.12082685 0.81907994
0.0074009937 -0.12082316 0.81905496
0.0096206367 -0.12067358 0.81804097
0.011848457 -0.12066354 0.8179729
0.014079792 -0.12068681 0.81813061
0.016322775 -0.12078991 0.81882954
0.018525006 -0.12060291 0.81756186
0.020723516 -0.12043443 0.81641978
0.02289783 -0.12017163 0.81463826
0.025146089 -0.12030905 0.81556988
0.027392939 -0.12041796 0.81630814
0.02965139 -0.1205577 0.81725538
0.031847991 -0.12044398 0.81648457
0.034055833 -0.12038486 0.81608379
0.036319394 -0.12051789 0.81698555
0.038571883 -0.12060095 0.81754857
0.040812477 -0.12063976 0.81781167
0.043066617 -0.12071251 0.8183049
0.04534249 -0.12083603 0.81914216
0.047592171 -0.12088143 0.81944996
0.049833544 -0.1209026 0.81959349
0.052353542 -0.12156895 0.82411063
0.055517305 -0.12361389 0.83797318
0.060068354 -0.12846416 0.87085301
-0.046235658 -0.12482981 0.86213928
-0.043102168 -0.12259831 0.84672737
-0.040435608 -0.12151765 0.8392638
-0.038005196 -0.12105963 0.83610052
-0.035624858 -0.1207129 0.83370578
-0.033284336 -0.12046306 0.83198023
-0.030978294 -0.12031059 0.83092719
-0.028705191 -0.12027209 0.8306613
-0.026365556 -0.11992439 0.82825989
-0.024090378 -0.11983222 0.82762331
-0.021818541 -0.11973935 0.8269819
-0.019563539 -0.11972812 0.82690436
-0.017280249 -0.11951829 0.82545519
-0.015011729 -0.11936314 0.82438362
-0.01275686 -0.11928103 0.82381654
-0.010508837 -0.11924154 0.82354379
-0.0082663363 -0.11926026 0.82367307
-0.0060194484 -0.11920607 0.82329881
-0.003774134 -0.11913715 0.82282287
-0.0015316887 -0.11908971 0.82249516
0.00070836802 -0.11894108 0.82146871
0.0029440101 -0.11884005 0.82077086
0.005177564 -0.11877833 0.82034463
0.0074216351 -0.11892235 0.82133931
0.0096614072 -0.11894673 0.82150769
0.011900144 -0.11895158 0.82154119
0.014140453 -0.11896811 0.82165539
0.016380081 -0.11897518 0.82170421
0.018595744 -0.11882742 0.82068372
0.020812597 -0.11871818 0.81992924
0.023001354 -0.11848538 0.81832135
0.025245124 -0.11855206 0.81878191
0.027492838 -0.11862493 0.81928515
0.029745813 -0.11870784 0.81985784
0.031934619 -0.11854099 0.81870544
0.034150451 -0.11848969 0.81835115
0.036437359 -0.11867617 0.81963909
0.038748078 -0.1189142 0.82128304
0.040943831 -0.11879268 0.82044375
0.043173119 -0.118776 0.82032853
0.045401271 -0.11875798 0.82020408
0.047690812 -0.1188947 0.8211484
0.049946744 -0.11893914 0.82145524
0.052503355 -0.11966506 0.82646888
0.055777643 -0.12189973 0.84190267
0.060714472 -0.12744777 0.88022023
-0.046581116 -0.12339599 0.86858094
-0.043161891 -0.12045801 0.84790063
-0.040341131 -0.11895242 0.8373028
-0.03790817 -0.11847837 0.83396596
-0.035566874 -0.11824864 0.83234888
-0.03326444 -0.1181256 0.83148283
-0.030978998 -0.11804935 0.83094609
-0.028684899 -0.11792547 0.83007413
-0.026362371 -0.11765351 0.82815981
-0.024068119 -0.11746866 0.82685864
-0.021807047 -0.11742428 0.82654625
-0.019519549 -0.11721101 0.82504499
-0.017255744 -0.11710298 0.82428461
-0.0149878 -0.11693037 0.82306957
-0.012740186 -0.11688352 0.82273984
-0.010492191 -0.11681241 0.82223928
-0.0082580307 -0.11689853 0.82284552
-0.0060135019 -0.11684739 0.82248551
-0.0037668 -0.11666816 0.82122397
-0.0015284097 -0.11659861 0.82073438
0.00070736342 -0.11653742 0.82030368
0.0029399435 -0.11644273 0.81963712
0.0051666191 -0.11629689 0.81861055
0.0074035078 -0.11639955 0.8193332
0.0096465824 -0.11652939 0.82024711
0.011891522 -0.11662867 0.82094598
0.014125536 -0.11660632 0.82078862
0.016342169 -0.11646621 0.8198024
0.018556122 -0.11634299 0.8189351
0.020767257 -0.11623047 0.81814301
0.022958688 -0.11604016 0.81680346
0.025170187 -0.11597594 0.81635141
0.027431997 -0.11613514 0.81747204
0.029721128 -0.11637742 0.81917745
0.031956594 -0.11639041 0.81926882
0.034139726 -0.11622352 0.81809413
0.036388453 -0.11628672 0.81853902
0.038678255 -0.11646632 0.81980318
0.040934786 -0.11653157 0.82026249
0.043167245 -0.11652509 0.82021689
0.045395523 -0.11650852 0.82010025
0.047643222 -0.11654101 0.82032895
0.049919482 -0.11663733 0.82100689
0.052466501 -0.11733087 0.82588875
0.055803016 -0.11966032 0.84228563
0.060830489 -0.12528849 0.88190222
-0.043389503 -0.11877091 0.85237199
-0.040480405 -0.11707395 0.84019357
-0.038015626 -0.11653559 0.83633
-0.035702799 -0.11642409 0.8355298
-0.033407453 -0.1163583 0.83505762
-0.031071376 -0.11613065 0.83342391
-0.028763624 -0.11598132 0.83235222
-0.026464008 -0.11584204 0.83135271
-0.024188673 -0.11579294 0.83100027
-0.021891395 -0.11561778 0.82974327
-0.01958221 -0.11533217 0.82769352
-0.017313497 -0.11524159 0.82704347
-0.015039819 -0.11508591 0.82592624
-0.01279126 -0.11510149 0.82603806
-0.010528164 -0.11496499 0.8250584
-0.008293557 -0.1151499 0.82638544
-0.0060324725 -0.11496802 0.82508016
-0.0037802109 -0.1148381 0.82414776
-0.0015339683 -0.11477839 0.82371926
0.0007104277 -0.11479761 0.82385719
0.0029513927 -0.11465435 0.82282907
0.0051840604 -0.11445159 0.82137394
0.007423352 -0.11447324 0.82152933
0.0096725561 -0.11460232 0.82245564
0.011913558 -0.11460394 0.82246727
0.014153827 -0.11459909 0.82243252
0.016369699 -0.11442504 0.82118338
0.018610306 -0.11444496 0.82132638
0.020842198 -0.11441277 0.82109535
0.02306935 -0.11436332 0.82074046
0.02526941 -0.11420016 0.81956953
0.027525621 -0.11429666 0.82026207
0.02981953 -0.11452345 0.82188964
0.032061588 -0.11453333 0.82196057
0.034263566 -0.11440809 0.82106179
0.036497291 -0.11439771 0.82098728
0.038781151 -0.11453661 0.82198405
0.041043632 -0.11460063 0.82244354
0.043244392 -0.11449462 0.82168275
0.045510709 -0.11456407 0.82218117
0.047777534 -0.11462822 0.82264155
0.050143614 -0.11491408 0.82469308
0.052717391 -0.115631 0.8298381
0.056030087 -0.11784305 0.84571308
0.061274931 -0.12378353 0.8883456
-0.043510463 -0.11677319 0.85474819
-0.040552236 -0.11498846 0.84168446
-0.038034778 -0.11431451 0.83675134
-0.035703454 -0.11414972 0.83554512
-0.03338258 -0.11399819 0.83443594
-0.031023489 -0.11368445 0.83213943
-0.028708952 -0.11349738 0.83077013
-0.026448613 -0.11351089 0.83086908
-0.024195885 -0.11356267 0.83124804
-0.021882491 -0.11331099 0.82940578
-0.019571232 -0.11301366 0.8272295
-0.017312771 -0.1129835 0.82700872
-0.015047745 -0.11289508 0.82636148
-0.012792024 -0.11285764 0.82608742
-0.010518328 -0.11261175 0.82428759
-0.0082811099 -0.1127289 0.82514513
-0.0060274941 -0.11262701 0.82439929
-0.0037744127 -0.11241995 0.82288367
-0.0015325198 -0.11242785 0.82294148
0.00070893974 -0.11231722 0.82213169
0.0029497673 -0.11235058 0.82237589
0.0051783649 -0.11209042 0.82047158
0.0074128113 -0.11207556 0.82036281
0.0096456697 -0.11204915 0.82016951
0.011874437 -0.1119941 0.81976652
0.014116395 -0.11206117 0.82025748
0.016337695 -0.11196834 0.81957799
0.018582398 -0.11203893 0.8200947
0.020807914 -0.11199111 0.81974471
0.023050623 -0.11203613 0.8200742
0.02526569 -0.1119507 0.81944889
0.027515762 -0.11202166 0.81996828
0.029792449 -0.11218218 0.82114321
0.032046888 -0.11224235 0.82158369
0.034271725 -0.11219775 0.82125723
0.036510009 -0.11219996 0.82127339
0.038754236 -0.11221912 0.82141364
0.041035999 -0.11233893 0.8222906
0.04324609 -0.11226029 0.821715
0.045511309 -0.11232546 0.82219201
0.047771104 -0.11237174 0.82253081
0.050176263 -0.11274051 0.82523006
0.052757736 -0.1134568 0.83047312
0.056082118 -0.11564613 0.84649843
0.061338559 -0.1214892 0.8892681
-0.043801807 -0.11521069 0.86047155
-0.040828627 -0.11346333 0.84742111
-0.038203333 -0.11253121 0.84045941
-0.035806116 -0.11219491 0.83794767
-0.033465851 -0.11200341 0.83651739
-0.031105757 -0.11171269 0.83434612
-0.028810512 -0.11162739 0.83370906
-0.026531506 -0.11159581 0.83347315
-0.024280833 -0.11168863 0.83416641
-0.021960841 -0.11144884 0.83237547
-0.019651739 -0.11121544 0.83063233
-0.01736453 -0.11106131 0.82948118
-0.015090453 -0.11095763 0.8287068
-0.012822444 -0.11086994 0.82805187
-0.010551911 -0.1107183 0.82691932
-0.0083029056 -0.11077154 0.82731694
-0.0060477275 -0.11075142 0.82716668
-0.0037899129 -0.11063042 0.82626295
-0.0015381662 -0.11059166 0.82597351
0.00071090326 -0.11038215 0.82440871
0.002955466 -0.11032269 0.82396466
0.0051920391 -0.11014508 0.82263809
0.0074360869 -0.11018533 0.82293868
0.0096732508 -0.11012857 0.82251477
0.011909108 -0.11008106 0.82216001
0.014161865 -0.11018009 0.82289958
0.016412176 -0.11023562 0.82331431
0.018670423 -0.11032468 0.8239795
0.020914933 -0.11032218 0.82396078
0.023143157 -0.11024258 0.82336628
0.025384547 -0.11023421 0.82330382
0.027615851 -0.11018696 0.8229509
0.029907262 -0.11036863 0.82430774
0.032142177 -0.11033099 0.82402664
0.034399562 -0.11037036 0.82432067
0.036661126 -0.11041749 0.82467264
0.038951304 -0.11054039 0.82559055
0.041175254 -0.11047217 0.82508105
0.043395042 -0.11040043 0.82454526
0.045604676 -0.1103112 0.82387877
0.04788854 -0.11040144 0.82455283
0.050292712 -0.11074854 0.82714522
0.052953865 -0.1116075 0.83356047
0.056369685 -0.11392095 0.8508389
0.061601318 -0.11957639 0.89307749
-0.043886412 -0.11308428 0.86213356
-0.040860672 -0.11124171 0.84808618
-0.038199496 -0.11023026 0.84037507
-0.035729673 -0.10967722 0.83615875
-0.033409446 -0.10953932 0.83510745
-0.031075753 -0.1093339 0.83354133
-0.028807146 -0.10934312 0.83361167
-0.026507828 -0.10922738 0.83272928
-0.024230117 -0.10918735 0.8324241
-0.021910695 -0.10893166 0.83047479
-0.019610019 -0.10872103 0.82886893
-0.017331751 -0.10859594 0.82791537
-0.01506863 -0.10854257 0.82750839
-0.012797323 -0.10840106 0.82642961
-0.010535747 -0.10829914 0.8256526
-0.0082803117 -0.10822215 0.82506561
-0.0060348022 -0.10826585 0.8253988
-0.003781355 -0.10813448 0.82439721
-0.0015355218 -0.10815497 0.82455349
0.00070918858 -0.10787516 0.82242024
0.0029481852 -0.10781149 0.82193482
0.0051823594 -0.10770258 0.82110447
0.0074287015 -0.10783596 0.82212138
0.0096690319 -0.10784051 0.82215601
0.011906401 -0.10781652 0.82197315
0.014157608 -0.10790559 0.82265222
0.016410924 -0.1079842 0.82325155
0.018666213 -0.10805532 0.82379377
0.020910718 -0.10805546 0.82379478
0.023106886 -0.10782999 0.82207584
0.025337493 -0.10779088 0.8217777
0.027563456 -0.10773997 0.82138956
0.02985272 -0.10792556 0.82280445
0.032099199 -0.10794134 0.82292479
0.034338333 -0.10793198 0.82285339
0.036624484 -0.10806249 0.82384837
0.038889006 -0.1081178 0.82427007
0.041110173 -0.10805312 0.82377696
0.04334598 -0.10803162 0.82361305
0.045556054 -0.10795126 0.82300037
0.047832564 -0.10802847 0.82358903
0.050202847 -0.10830107 0.82566726
0.052874643 -0.10917283 0.83231342
0.056362938 -0.11158942 0.85073709
0.061493121 -0.11693738 0.89150888
-0.044068657 -0.11119519 0.86571372
-0.041022122 -0.10936146 0.85143715
-0.038289219 -0.10819414 0.84234893
-0.035828624 -0.10769648 0.83847439
-0.033532757 -0.10765991 0.83818972
-0.031194517 -0.10747202 0.8367269
-0.028914908 -0.10747243 0.83673006
-0.026593205 -0.10730305 0.83541137
-0.02430498 -0.1072497 0.83499599
-0.021992395 -0.10706673 0.83357143
-0.019685002 -0.1068698 0.83203828
-0.017405765 -0.10679436 0.83145094
-0.015114338 -0.10661038 0.83001852
-0.012833693 -0.10645109 0.82877833
-0.010563049 -0.10632443 0.82779223
-0.0083018038 -0.10624927 0.82720709
-0.0060438626 -0.10617618 0.82663804
-0.0037902773 -0.10613821 0.8263424
-0.0015388574 -0.10613849 0.82634461
0.00071193016 -0.10604279 0.82559955
0.0029590516 -0.1059612 0.82496434
0.0052070254 -0.1059674 0.82501256
0.0074579013 -0.10601111 0.82535285
0.0097120404 -0.10607021 0.82581306
0.0119652 -0.1060984 0.82603246
0.014213828 -0.10608382 0.82591897
0.016451592 -0.10600323 0.82529157
0.018682921 -0.10590556 0.82453108
0.020933695 -0.10592725 0.8247
0.023157854 -0.1058231 0.82388914
0.025417026 -0.10588323 0.82435721
0.027670424 -0.10591148 0.82457721
0.029946072 -0.10601426 0.8253774
0.032183733 -0.10597759 0.82509196
0.034409098 -0.10590788 0.8245492
0.036690123 -0.10600752 0.82532495
0.038962543 -0.10607224 0.82582879
0.041234996 -0.10612996 0.82627821
0.043474887 -0.10610224 0.82606238
0.045700476 -0.10604406 0.82560945
0.047932506 -0.10600559 0.82530987
0.050308593 -0.10627487 0.82740641
0.052981045 -0.10712028 0.83398831
0.056460723 -0.10946111 0.85221303
0.061627284 -0.11475823 0.8934539
-0.04406032 -0.1088159 0.86554992
-0.040960673 -0.10688132 0.85016179
-0.038225614 -0.10572318 0.84094965
-0.035815019 -0.10537197 0.83815604
-0.033541318 -0.10540312 0.83840376
-0.031191684 -0.10518275 0.83665091
-0.02888597 -0.10508742 0.83589262
-0.026546866 -0.10484391 0.83395565
-0.024268413 -0.10481676 0.8337397
-0.021976756 -0.10472108 0.83297873
-0.019675139 -0.10455045 0.83162141
-0.017404819 -0.10452334 0.83140576
-0.015113115 -0.10434049 0.82995135
-0.012833797 -0.10419387 0.82878506
-0.010554553 -0.10398534 0.82712638
-0.0082958927 -0.10392144 0.82661813
-0.0060389908 -0.10384017 0.82597172
-0.0037840758 -0.10371681 0.82499039
-0.0015353931 -0.10365319 0.82448435
0.00071053411 -0.10358986 0.82398063
0.0029581827 -0.10368307 0.82472205
0.0052084648 -0.10374826 0.82524061
0.0074541592 -0.10371031 0.82493871
0.0096957814 -0.10364642 0.82443053
0.01194573 -0.10367882 0.82468826
0.014186682 -0.10363524 0.8243416
0.016416913 -0.10353596 0.82355189
0.018627452 -0.10335129 0.82208306
0.020884031 -0.10343432 0.82274342
0.023127414 -0.10344221 0.82280618
0.025384886 -0.10350616 0.82331485
0.027635094 -0.10353249 0.82352436
0.029902974 -0.10361613 0.82418954
0.032146391 -0.10360921 0.82413459
0.034351777 -0.10348865 0.82317561
0.036596444 -0.10349394 0.82321763
0.038844716 -0.10350823 0.82333136
0.041144658 -0.10365112 0.82446796
0.043393727 -0.1036577 0.82452029
0.045652546 -0.10368577 0.82474351
0.047879301 -0.1036418 0.82439381
0.050229684 -0.10385739 0.82610863
0.052855566 -0.10459969 0.83201313
0.056271017 -0.10677922 0.84934962
0.061370786 -0.11185645 0.88973528
-0.04442662 -0.10734271 0.87274575
-0.041182093 -0.10513025 0.85475749
-0.038367223 -0.10381514 0.84406501
-0.035952438 -0.10348391 0.84137195
-0.033631966 -0.10339752 0.84066957
-0.031298708 -0.10325633 0.83952165
-0.02895637 -0.10306055 0.83792984
-0.026618101 -0.10284698 0.83619344
-0.024318073 -0.10275503 0.83544582
-0.022046072 -0.10277472 0.83560598
-0.019727124 -0.10255489 0.83381867
-0.017442208 -0.10247779 0.83319175
-0.01513801 -0.10224738 0.83131844
-0.012863021 -0.1021679 0.83067226
-0.010582346 -0.10199967 0.8293044
-0.0083274553 -0.10205608 0.82976305
-0.0060689724 -0.10209413 0.8300724
-0.0038032958 -0.10198445 0.82918066
-0.0015408052 -0.10176428 0.82739061
0.00071282854 -0.10167214 0.82664138
0.0029678047 -0.10176601 0.82740462
0.0052242563 -0.10180759 0.8277427
0.0074720057 -0.10170563 0.82691377
0.0097193662 -0.10164686 0.82643592
0.011976835 -0.10169603 0.82683569
0.014210828 -0.10156184 0.82574463
0.016442649 -0.10145094 0.82484293
0.018656369 -0.10126845 0.82335925
0.020929666 -0.10141383 0.82454127
0.02318087 -0.10143434 0.82470798
0.025469655 -0.10160114 0.82606417
0.027735289 -0.101656 0.82651019
0.030028617 -0.10179649 0.82765251
0.032247748 -0.10168342 0.82673311
0.034466296 -0.10158338 0.82591981
0.03670229 -0.10154387 0.8255986
0.038999584 -0.10166875 0.82661384
0.041289847 -0.10176264 0.82737732
0.043562416 -0.10180548 0.82772553
0.045815885 -0.10180164 0.82769436
0.048057631 -0.10177334 0.82746428
0.050377928 -0.10190649 0.82854676
0.05298432 -0.1025821 0.83403987
0.056308117 -0.10453399 0.8499096
0.061236165 -0.10919227 0.88778359
-0.044566803 -0.10529605 0.87549961
-0.04122638 -0.10291196 0.85567665
-0.038383476 -0.10155843 0.84442258
-0.03591837 -0.10109565 0.84057468
-0.033554733 -0.10087487 0.83873904
-0.031223331 -0.10072583 0.8374998
-0.028895866 -0.10056698 0.83617902
-0.026593579 -0.10047607 0.83542311
-0.024278047 -0.10031341 0.83407068
-0.02199995 -0.10028781 0.83385777
-0.019689459 -0.10009164 0.83222669
-0.017414805 -0.10005026 0.83188272
-0.015140411 -0.099998258 0.83145028
-0.012855081 -0.099843018 0.83015949
-0.010575418 -0.099674888 0.82876158
-0.0083104009 -0.099590965 0.82806379
-0.0060625724 -0.099727266 0.82919705
-0.0038000753 -0.099640846 0.82847852
-0.001540416 -0.099484868 0.82718164
0.00071285601 -0.099423729 0.82667327
0.002965597 -0.099437661 0.82678914
0.0052199778 -0.099470817 0.82706481
0.0074579753 -0.099265903 0.82536101
0.0097089736 -0.099288903 0.82555223
0.011951479 -0.099232726 0.82508516
0.014192526 -0.099184148 0.82468122
0.016418468 -0.099057704 0.82362992
0.018643782 -0.098958351 0.8228038
0.020901937 -0.099035926 0.82344884
0.023136055 -0.098995611 0.82311362
0.025436869 -0.099222586 0.82500082
0.027718857 -0.099345215 0.82602048
0.030044083 -0.099592775 0.82807881
0.032232113 -0.099382721 0.82633233
0.034448057 -0.099280544 0.82548273
0.036673117 -0.09921556 0.82494241
0.038981482 -0.099370442 0.82623023
0.041251734 -0.099416554 0.82661361
0.043499153 -0.099405713 0.82652348
0.045743238 -0.099388689 0.82638192
0.047995932 -0.099391095 0.82640195
0.050322078 -0.09953858 0.8276282
0.052896652 -0.10014373 0.83265984
0.056120981 -0.10187864 0.847085
0.060800813 -0.10601436 0.88147199
-0.044908646 -0.10370006 0.88221502
-0.041363709 -0.10091566 0.858527
-0.038470484 -0.099482745 0.84633672
-0.035979304 -0.098973073 0.84200072
-0.033618033 -0.09877567 0.84032136
-0.031303894 -0.098698013 0.8396607
-0.028982775 -0.098584376 0.83869398
-0.026686385 -0.098542601 0.83833855
-0.024345426 -0.098313026 0.83638549
-0.022028325 -0.098142333 0.83493334
-0.019724971 -0.098000608 0.83372766
-0.017436177 -0.097903751 0.83290362
-0.015171551 -0.097933933 0.8331604
-0.012876574 -0.097744346 0.8315475
-0.010607202 -0.097709641 0.83125228
-0.0083310017 -0.097576134 0.83011645
-0.0060757976 -0.09768068 0.83100587
-0.0038090842 -0.097614467 0.83044261
-0.0015456242 -0.097559899 0.82997835
0.00071562914 -0.097549409 0.82988912
0.0029743707 -0.097472548 0.8292352
0.0052303001 -0.097409666 0.82870024
0.0074737598 -0.097222492 0.82710791
0.0097386409 -0.097336158 0.82807487
0.011991127 -0.097306468 0.82782233
0.014246262 -0.09730427 0.82780361
0.016477672 -0.097162776 0.8265999
0.018724978 -0.097137772 0.82638717
0.020973613 -0.097124308 0.82627261
0.023219036 -0.097100005 0.82606584
0.025508918 -0.097249486 0.82733756
0.027771795 -0.097280107 0.82759804
0.030073792 -0.097432867 0.82889766
0.032289729 -0.09730494 0.82780933
0.034556042 -0.097335629 0.8280704
0.036809079 -0.097327448 0.82800078
0.039108656 -0.097436167 0.82892573
0.041387945 -0.097485222 0.82934302
0.04364812 -0.097486511 0.82935399
0.045900922 -0.097472005 0.82923061
0.048166532 -0.09748479 0.82933939
0.050506447 -0.097640075 0.83066046
0.053086609 -0.098226577 0.83565003
0.056212779 -0.099733569 0.84847057
0.06084257 -0.10368389 0.8820774
-0.044911981 -0.10130394 0.88228053
-0.041336279 -0.098511167 0.85795766
-0.0384362 -0.097090244 0.84558249
-0.035934504 -0.096558601 0.84095228
-0.03357267 -0.096355952 0.83918738
-0.031252798 -0.096252933 0.83829015
-0.028940121 -0.096157573 0.83745962
-0.026641069 -0.096095033 0.83691496
-0.024332603 -0.095983662 0.83594501
-0.022014812 -0.095808685 0.8344211
-0.019726813 -0.095738009 0.83380556
-0.01742232 -0.095558457 0.83224177
-0.015171748 -0.095665172 0.83317119
-0.012880046 -0.095504485 0.83177173
-0.010611215 -0.095480956 0.83156681
-0.0083231209 -0.095224261 0.82933122
-0.0060612164 -0.09518756 0.82901156
-0.0038005961 -0.095139392 0.82859206
-0.0015431588 -0.095146559 0.82865447
0.00071422465 -0.095101312 0.82826042
0.0029669225 -0.094974816 0.82715869
0.0052167 -0.0949044 0.82654548
0.0074642817 -0.094848543 0.82605898
0.0097283041 -0.094979092 0.82719594
0.011987168 -0.095019631 0.82754904
0.014244666 -0.095038213 0.82771087
0.016477739 -0.094911039 0.82660323
0.018715041 -0.09483587 0.8259486
0.020951239 -0.094771862 0.82539111
0.023208058 -0.094804481 0.82567525
0.025485013 -0.094906338 0.82656229
0.027744452 -0.094931699 0.82678318
0.030005608 -0.094958693 0.82701832
0.032234721 -0.094887599 0.82639915
0.034480073 -0.09487047 0.82624996
0.036744252 -0.094904065 0.82654256
0.039025165 -0.09497451 0.82715607
0.041346539 -0.095130354 0.82851332
0.043580227 -0.095078751 0.82806391
0.045822367 -0.095049769 0.82781148
0.048081737 -0.095057562 0.82787937
0.050461683 -0.095292352 0.82992423
0.053012993 -0.095816739 0.83449119
0.056067508 -0.097170092 0.84627789
0.060563676 -0.10081635 0.87803406
-0.045066491 -0.099240348 0.88531584
-0.041423902 -0.096377477 0.85977638
-0.038508475 -0.094964623 0.84717244
-0.036013331 -0.094474152 0.84279698
-0.033658531 -0.09431012 0.84133363
-0.031335212 -0.094216749 0.84050071
-0.029024931 -0.094150968 0.83991385
-0.026702231 -0.094030179 0.83883631
-0.024381736 -0.093895286 0.83763295
-0.022068609 -0.093763821 0.83646017
-0.019766804 -0.093655735 0.83549589
-0.017449763 -0.093437903 0.83355266
-0.015175378 -0.093417495 0.83337057
-0.012900416 -0.093385719 0.83308715
-0.010634694 -0.093421556 0.83340681
-0.0083577801 -0.093351819 0.83278471
-0.0060841511 -0.093280494 0.83214843
-0.0038152586 -0.093240172 0.83178872
-0.0015471382 -0.093128376 0.83079135
0.00071573106 -0.093040481 0.83000731
0.0029738494 -0.092937641 0.82908988
0.005229129 -0.092873178 0.82851475
0.0074910936 -0.092930503 0.82902616
0.0097607616 -0.093034714 0.82995582
0.012029786 -0.093094721 0.83049119
0.014282273 -0.093028016 0.82989609
0.016528249 -0.092942931 0.82913703
0.01878316 -0.092922509 0.82895488
0.021051053 -0.092963815 0.82932335
0.023298556 -0.092915788 0.82889491
0.025554216 -0.092905909 0.82880676
