# .PCD v0.7 - Point Cloud Data file format
VERSION 0.7
FIELDS x y z
SIZE 4 4 4
TYPE F F F
COUNT 1 1 1
WIDTH 891
HEIGHT 1
VIEWPOINT 0 0 0 1 0 0 0
POINTS 891
DATA ascii
-0.06419307 -0.067165166 0.37918133
-0.055189237 -0.066970311 0.3781572
-0.046238828 -0.066914834 0.37744075
-0.081266567 -0.070019193 0.38868651
-0.062995538 -0.072275616 0.38674635
-0.054467279 -0.073301017 0.38786989
-0.044844706 -0.073418073 0.38716528
-0.03637841 -0.072759435 0.38633293
-0.026715366 -0.071937419 0.38781527
-0.081161395 -0.06809105 0.38832662
-0.074746169 -0.068144403 0.38391837
-0.064654417 -0.067078277 0.38390261
-0.054889183 -0.065415673 0.38534629
-0.043990608 -0.065253168 0.38493201
-0.035575848 -0.06895496 0.38149643
-0.029791867 -0.069281451 0.38746294
-0.061589643 -0.080892771 0.39830375
-0.056452125 -0.082295984 0.39853442
-0.04804964 -0.082503498 0.39769739
-0.084785998 -0.071433768 0.39637139
-0.072920404 -0.074481159 0.39694485
-0.065857396 -0.076004453 0.39307243
-0.0551144 -0.078021467 0.3920157
-0.044989783 -0.078881368 0.39293721
-0.03536126 -0.075381711 0.39232364
-0.023377163 -0.072835982 0.39504728
-0.082544282 -0.068331227 0.39506277
-0.074492052 -0.066996746 0.39823645
-0.066141635 -0.063887782 0.39519385
-0.054003168 -0.064737804 0.39375085
-0.044591315 -0.064001299 0.39381996
-0.037105367 -0.065926529 0.39484036
-0.062925749 -0.05985954 0.39626753
-0.055038027 -0.05950924 0.39610443
-0.0470355 -0.059676703 0.39569688
-0.12163527 -0.0241956 0.39891788
-0.11957552 -0.026044462 0.39863595
-0.065720938 -0.084069945 0.40628058
-0.053694773 -0.086127423 0.40558279
-0.044836152 -0.084521733 0.40337983
-0.03609015 -0.081042632 0.40348253
-0.087852985 -0.070544749 0.40182108
-0.075687468 -0.077728435 0.40563032
-0.032413032 -0.076310985 0.40297037
-0.025402945 -0.072242901 0.40413362
-0.086095303 -0.068756424 0.40282184
-0.07528314 -0.064307451 0.40435463
-0.06888561 -0.061036441 0.40380868
-0.041420557 -0.060928628 0.40421182
-0.034161851 -0.065989293 0.40290371
-0.029289605 -0.068741165 0.40578568
-0.065147504 -0.059173297 0.40427694
-0.054873232 -0.058149986 0.40502605
-0.046545904 -0.058855753 0.40502578
-0.13319567 -0.032396011 0.40922293
-0.12397093 -0.03487964 0.4060683
-0.11527926 -0.033420544 0.4052318
-0.13368507 -0.025279621 0.40758294
-0.12600356 -0.026100334 0.40267989
-0.1140404 -0.024589006 0.40274623
-0.10890384 -0.025350649 0.40439206
-0.13346587 -0.018727928 0.40853578
-0.12568389 -0.01751464 0.4057591
-0.11495814 -0.018524427 0.40607524
-0.10989129 -0.019746192 0.40674064
-0.060523797 -0.12170604 0.41881549
-0.056001496 -0.12439217 0.41904718
-0.048606027 -0.1217097 0.41986963
-0.064733952 -0.11474991 0.41831902
-0.054617051 -0.11559502 0.41803789
-0.045947742 -0.11525541 0.41849002
-0.064968772 -0.10614961 0.4192802
-0.042618558 -0.1046417 0.41788962
-0.036334753 -0.1008659 0.41930017
-0.070156261 -0.099472508 0.41973719
-0.066766195 -0.093945287 0.41792431
-0.059311792 -0.090131953 0.41484246
-0.043850385 -0.099440381 0.4157964
-0.034991007 -0.096102647 0.41784239
-0.073189169 -0.085579269 0.41575059
-0.066046566 -0.088065416 0.41396797
-0.056032382 -0.08954379 0.41234538
-0.042368416 -0.08814615 0.41384673
-0.036171068 -0.084661849 0.41433454
-0.026238976 -0.080405936 0.41689438
-0.081048727 -0.07877326 0.41589758
-0.023086008 -0.076187685 0.4127025
-0.082363598 -0.068484284 0.41336882
-0.074807994 -0.061546605 0.41562176
-0.041956853 -0.061188705 0.41898417
-0.035139691 -0.065195061 0.41703984
-0.064312249 -0.058507428 0.41544577
-0.056428079 -0.057103861 0.41740501
-0.047427751 -0.058756284 0.41549546
-0.13132025 -0.04014086 0.41606364
-0.1279563 -0.042316686 0.41875011
-0.11618765 -0.040036246 0.41785505
-0.1350325 -0.034156173 0.41475484
-0.1283337 -0.037025642 0.41120297
-0.1146092 -0.037731502 0.4143663
-0.10812835 -0.033217888 0.41476998
-0.13896202 -0.024296569 0.41428691
-0.10677439 -0.025272597 0.41427019
-0.14049289 -0.015598662 0.41917688
-0.13537273 -0.013956686 0.41583845
-0.12562306 -0.014226116 0.41707259
-0.11346634 -0.015981194 0.41444445
-0.10792371 -0.017605556 0.41704187
-0.1360691 -0.0085917162 0.41893688
-0.072032839 -0.14164789 0.42949277
-0.064178601 -0.14123218 0.42580104
-0.053794194 -0.1420909 0.42767149
-0.045712441 -0.14085373 0.42658052
-0.073561303 -0.13416341 0.4251897
-0.065388106 -0.13473271 0.42301574
-0.055415761 -0.1346669 0.42337212
-0.0454042 -0.13488302 0.42495868
-0.036047243 -0.13293968 0.42633426
-0.028158976 -0.13198039 0.42852363
-0.080834851 -0.12448671 0.42980522
-0.07492438 -0.12482484 0.42522883
-0.065592304 -0.12538019 0.42193046
-0.053105757 -0.12616511 0.42109874
-0.044493582 -0.12529758 0.42199731
-0.035417397 -0.12467577 0.42564887
-0.027909514 -0.12467864 0.42809969
-0.080181338 -0.11130784 0.42877632
-0.074217021 -0.11489002 0.42473543
-0.064181 -0.11543011 0.42089054
-0.052622087 -0.1166508 0.42080685
-0.043824986 -0.11541492 0.4215849
-0.034590967 -0.11482029 0.42380065
-0.026793288 -0.11468894 0.42669579
-0.081038609 -0.10502641 0.42884734
-0.075981565 -0.10515244 0.42515406
-0.066980317 -0.10882553 0.42054069
-0.034211718 -0.10600474 0.42239299
-0.026296657 -0.1050795 0.42597234
-0.082709402 -0.098581582 0.42951283
-0.075594038 -0.094851635 0.42457363
-0.066231452 -0.091632374 0.42131189
-0.033298165 -0.094028354 0.42195854
-0.027128497 -0.095350184 0.42530099
-0.081311107 -0.086027458 0.427248
-0.078452528 -0.087679923 0.42821598
-0.033308394 -0.087799601 0.42392373
-0.02648437 -0.08553829 0.42644775
-0.088366166 -0.074986428 0.42769426
-0.028448775 -0.072344601 0.42127329
-0.081901252 -0.06579639 0.42142618
-0.07265126 -0.060396183 0.42613015
-0.0407352 -0.062305562 0.4266358
-0.03485582 -0.066451356 0.42773256
-0.065202624 -0.057973329 0.42342663
-0.054421443 -0.057056502 0.42446247
-0.04631928 -0.058834013 0.42310616
0.026332371 -0.055387598 0.42831334
0.03384912 -0.053675897 0.42656165
0.040653951 -0.050203364 0.42553326
-0.13575947 -0.042198926 0.42662901
-0.12238025 -0.042446595 0.42123288
-0.11492312 -0.04188595 0.42564207
0.036771763 -0.046137765 0.42652008
0.042099405 -0.04426093 0.42741266
-0.14201345 -0.032892067 0.42298189
-0.13605756 -0.037671551 0.42106736
-0.10524236 -0.034097549 0.422773
0.03704894 -0.038687926 0.42977038
-0.14478922 -0.023942847 0.42515075
-0.10375832 -0.02425091 0.42531157
-0.14362009 -0.014454771 0.42415726
-0.13593909 -0.012624799 0.42063236
-0.12538898 -0.011694371 0.42552328
-0.11446603 -0.012783401 0.42444891
-0.10626754 -0.015883202 0.42537066
-0.14199165 -0.0087782647 0.42706436
-0.13397558 -0.0062949914 0.42579943
-0.1289171 -0.0087224841 0.4267422
-0.080629721 -0.14098115 0.43673724
-0.073031157 -0.14518915 0.43501937
-0.063643865 -0.14620271 0.43281862
-0.056432303 -0.14712301 0.43435049
-0.043698013 -0.14522876 0.43409157
-0.034720905 -0.14164633 0.43250218
-0.0281318 -0.14032024 0.43981874
-0.083978683 -0.1336863 0.43631318
-0.078728847 -0.13623182 0.43186337
-0.034290399 -0.13755654 0.43076718
-0.025357448 -0.13469476 0.43486142
-0.019575309 -0.13056244 0.437024
-0.091643192 -0.12343104 0.43777487
-0.085152835 -0.12436098 0.4341743
-0.023385394 -0.12552956 0.43181062
-0.018130563 -0.1236271 0.43455043
-0.09220285 -0.11455969 0.43759456
-0.084692888 -0.11565962 0.43426967
-0.022112103 -0.11552412 0.43124035
-0.016219426 -0.11473387 0.43562731
-0.092677116 -0.1045149 0.43661204
-0.086245865 -0.10542721 0.43493298
-0.021949263 -0.10497903 0.43147361
-0.014930555 -0.10487022 0.43417358
-0.0092306444 -0.10356534 0.43999401
-0.092166819 -0.095182829 0.43768126
-0.085926667 -0.093909115 0.43380556
-0.022755457 -0.095357023 0.43339178
-0.01542222 -0.094789706 0.4349584
-0.0092022959 -0.095012672 0.43911815
-0.093360342 -0.08496888 0.43760023
-0.086109333 -0.08620549 0.43379679
-0.079796664 -0.087555811 0.43001992
-0.02288371 -0.088006191 0.43220177
-0.016982147 -0.085025296 0.43647218
-0.097817428 -0.072766282 0.43812433
-0.025918558 -0.075499773 0.43670613
-0.019277427 -0.079939052 0.43589458
-0.087600172 -0.068722852 0.43995368
-0.074315175 -0.060763851 0.43595541
-0.043291222 -0.061113868 0.43232301
-0.036143787 -0.066262141 0.43525204
0.019392591 -0.061794486 0.43743315
0.025198216 -0.062080231 0.43227074
0.033303257 -0.061146408 0.43278739
-0.065606289 -0.058173086 0.43617651
-0.053273391 -0.056990787 0.43146539
-0.045316868 -0.059123516 0.43242523
0.019096922 -0.05582653 0.43864924
0.022787223 -0.053574745 0.43335035
0.038379781 -0.056176577 0.43333122
0.042652883 -0.053450756 0.43577909
-0.12339121 -0.04630322 0.43960047
-0.11122396 -0.042175785 0.43443674
0.019483659 -0.048793525 0.43975765
0.025796352 -0.046222597 0.43585929
0.033891752 -0.043712828 0.43205982
0.046122517 -0.043726012 0.43501556
-0.14073943 -0.039716084 0.43207422
-0.10349846 -0.035326138 0.43486887
0.029675437 -0.039517812 0.43901041
0.035478666 -0.034937464 0.43412057
0.04380301 -0.036201324 0.43428522
-0.10273729 -0.022159239 0.43294859
-0.099772975 -0.027526885 0.43298978
0.03773072 -0.028192578 0.43777439
0.042309068 -0.027729832 0.43582141
-0.14883165 -0.011087259 0.43745303
-0.12252869 -0.010883695 0.43404675
-0.11614145 -0.010769702 0.43002659
-0.1052355 -0.014383309 0.43498477
-0.14421295 -0.0045618601 0.43632171
-0.1336592 -0.0031680476 0.43251482
-0.12714982 -0.0060373037 0.43497583
-0.11467791 -0.0088706445 0.43643486
-0.10962028 -0.008875858 0.43729767
-0.10181062 0.046628077 0.4387655
-0.094030924 0.046994932 0.43556851
-0.085609265 0.047763336 0.43692362
-0.074028283 0.047751915 0.43921581
-0.065766707 0.047460679 0.43792653
-0.093107775 0.052115627 0.43847138
-0.085478567 0.053385872 0.43866867
-0.073786423 0.053670388 0.43869334
-0.06872312 0.054724574 0.43970749
-0.074324325 -0.15294363 0.44836172
-0.064956948 -0.15295464 0.44386184
-0.053572837 -0.15341255 0.4456217
-0.045266706 -0.15246151 0.44513297
-0.085679352 -0.14314051 0.44650412
-0.078949466 -0.14684695 0.44462207
-0.034678757 -0.14572088 0.44219401
-0.026373014 -0.14277723 0.44521183
-0.092432335 -0.13426726 0.44654197
-0.087655097 -0.13516143 0.44133362
-0.023101004 -0.13836691 0.44444829
-0.017789118 -0.13316903 0.44393882
-0.09589456 -0.12526543 0.44548842
-0.013757204 -0.125523 0.44379312
-0.0094880322 -0.12314527 0.44945109
-0.10144135 -0.11282572 0.44931442
-0.097689651 -0.11525526 0.44325256
-0.011372276 -0.11668707 0.44154376
-0.0085906954 -0.11477946 0.44550461
-0.10189048 -0.10486778 0.4483996
-0.095468268 -0.10469433 0.44314209
-0.0070802402 -0.10476969 0.44510934
-0.10191502 -0.096001916 0.44792125
-0.097171307 -0.095770761 0.44361201
-0.0078530367 -0.095144711 0.44462249
-0.10244312 -0.085194752 0.448006
-0.098581098 -0.086041778 0.44347903
-0.012544622 -0.084415279 0.44220075
-0.0086555257 -0.087204471 0.44694984
-0.10129978 -0.076930806 0.44378203
-0.090364866 -0.071336269 0.44307846
-0.024766456 -0.073221639 0.44216377
-0.01646552 -0.075658463 0.44428524
-0.09127418 -0.066800267 0.44787014
-0.086551182 -0.064413659 0.44785959
-0.077771768 -0.061545178 0.44392949
-0.041874703 -0.061386347 0.44305402
-0.034671243 -0.064138092 0.4435004
-0.026032837 -0.065047733 0.44317982
-0.019715207 -0.067216992 0.44628975
0.017228473 -0.062582627 0.44303629
0.025418175 -0.067444108 0.44780165
0.033054609 -0.065202534 0.44316512
-0.081204474 -0.057815962 0.44860271
-0.074596152 -0.055612776 0.44710043
-0.066080369 -0.054353226 0.44698408
-0.054924842 -0.054007038 0.44653961
-0.044620227 -0.054685056 0.4458144
-0.035147697 -0.055887673 0.4467158
-0.027640855 -0.058147967 0.44695783
0.015525844 -0.05457978 0.44384304
0.046389554 -0.050132409 0.44235364
-0.11739741 -0.045981612 0.4442707
-0.1078475 -0.041186407 0.44665736
-0.065823801 -0.047879513 0.4483552
-0.053873874 -0.047886271 0.44872311
-0.046680868 -0.048109528 0.44905728
0.018394006 -0.044786591 0.44637528
0.024120519 -0.041773625 0.44444808
0.048362132 -0.044902891 0.44161618
-0.10231072 -0.036324427 0.44761246
-0.099689536 -0.032660853 0.44560692
0.019924741 -0.032097146 0.44960791
0.026587522 -0.034497567 0.44471163
0.031855583 -0.033533618 0.4409982
0.04653883 -0.033241145 0.44397187
-0.15211496 -0.021665677 0.44008493
-0.10103519 -0.022978375 0.44315791
-0.099014767 -0.026843762 0.44395781
0.02665682 -0.026269373 0.44847929
0.033232041 -0.025581522 0.44568625
0.043195277 -0.026579462 0.44504103
-0.10311934 -0.014254621 0.4462198
-0.099768065 -0.017504402 0.44942024
-0.15199354 -0.0070724818 0.44679072
-0.14555618 -0.0020811418 0.44353306
-0.13929789 -0.00069408142 0.44275311
-0.12410012 -0.0039420184 0.44440237
-0.11532344 -0.0036497754 0.44593453
-0.10603299 -0.0053500007 0.44675624
-0.14143309 0.0014238232 0.44952542
-0.13729611 0.0014131563 0.4471145
-0.12280513 0.0026026121 0.44667989
-0.11485767 0.0026588596 0.44621029
-0.10827076 0.0014101428 0.44920096
-0.10355835 0.048262488 0.44622108
-0.094522737 0.045322523 0.44411686
-0.086987279 0.045427926 0.44873604
-0.074665479 0.045471642 0.44463795
-0.064388297 0.046829939 0.44313997
-0.10149329 0.052681692 0.44638336
-0.095152423 0.056476921 0.4428525
-0.084102318 0.057688616 0.44045013
-0.076765984 0.056507736 0.44189006
-0.066234805 0.053612206 0.4445273
-0.059685707 0.052727859 0.44941181
-0.091912255 0.061988488 0.4459663
-0.085511565 0.06258671 0.44573984
-0.075796656 0.062472835 0.44627678
-0.068169378 0.06016263 0.44956794
-0.083801672 -0.15220082 0.4567678
-0.078963503 -0.15537032 0.45616311
-0.03829515 -0.15245995 0.45073986
-0.093185693 -0.14321321 0.45697564
-0.087425828 -0.14580864 0.45351106
-0.032165643 -0.1487021 0.45146421
-0.097182617 -0.13609391 0.45606175
-0.10345874 -0.12429775 0.45633608
-0.0981635 -0.12798142 0.45171899
-0.0074107111 -0.12180462 0.45261133
-0.10477843 -0.11573618 0.45380753
-0.0058543021 -0.1155662 0.45613065
-0.1066797 -0.1043755 0.4543139
-0.0031755459 -0.10428467 0.45694259
-0.10633346 -0.092579968 0.45334041
-0.0043628654 -0.094034299 0.45456234
-0.1066725 -0.084823042 0.45559072
-0.01150178 -0.080428705 0.45010483
-0.0059239585 -0.084704012 0.45567849
-0.1048141 -0.077046469 0.45697564
-0.096100084 -0.071762882 0.45298517
-0.013674194 -0.072419368 0.4527761
-0.0081874821 -0.076862641 0.45559928
-0.09507677 -0.064928651 0.4542383
-0.08528167 -0.062837005 0.45025951
-0.021719694 -0.06113562 0.45375702
-0.016610293 -0.065371767 0.4564935
0.01462715 -0.064058222 0.45852923
0.032763645 -0.068276294 0.45329121
-0.091345817 -0.057590045 0.45590681
-0.085478835 -0.055620845 0.45304829
-0.078057952 -0.052931868 0.45202732
-0.033242039 -0.05221305 0.45279968
-0.025710046 -0.056459669 0.45606905
0.0083868643 -0.054177463 0.45667401
0.012064239 -0.053877391 0.45318183
-0.10661157 -0.041635204 0.45983833
-0.083275564 -0.049845021 0.45740244
-0.075287096 -0.048431821 0.45466706
-0.064706959 -0.044212218 0.45535287
-0.054680537 -0.044414546 0.45297647
-0.04483008 -0.04416262 0.45525339
-0.036393043 -0.048487421 0.45457327
0.0079651261 -0.047302134 0.45728791
0.014075542 -0.044795461 0.45408207
0.024162548 -0.040565971 0.45073453
0.049748663 -0.04935595 0.45420378
0.051583834 -0.040673476 0.45182532
-0.10292399 -0.038911503 0.45336956
-0.098779842 -0.03151802 0.45447123
-0.080367677 -0.032880928 0.45970479
-0.078115731 -0.031757206 0.45914897
-0.064646147 -0.032735016 0.45812884
-0.055269308 -0.031201489 0.45673102
-0.046651684 -0.034053791 0.45697463
0.0081608091 -0.033614527 0.45886135
0.015143532 -0.034479212 0.4559502
0.021558823 -0.036835086 0.45272398
0.049639713 -0.030260971 0.45344022
0.051409807 -0.038442817 0.45035991
-0.10015766 -0.021799186 0.45113304
-0.097699262 -0.024462938 0.45742756
-0.073666982 -0.025312638 0.45710418
-0.064363472 -0.025564546 0.45533979
-0.054726213 -0.024947479 0.45641974
-0.044499502 -0.025381071 0.45732594
-0.038779959 -0.024581335 0.45896125
0.0079331482 -0.025672847 0.45819744
0.015431793 -0.025276147 0.45454752
0.022345597 -0.024056979 0.45150295
0.036903236 -0.021768464 0.45248628
0.044397563 -0.024046917 0.45601279
-0.10010402 -0.014752554 0.45097587
-0.096803963 -0.015564835 0.45436013
-0.081442855 -0.013854626 0.45897511
-0.074139431 -0.014548516 0.4568902
-0.063709632 -0.014298376 0.45399231
-0.054631017 -0.015425866 0.45448241
-0.044634022 -0.01481741 0.4581424
-0.037124984 -0.015956204 0.45940563
0.0096609741 -0.017809397 0.45900154
0.014953533 -0.01562747 0.45772633
0.024337761 -0.015491117 0.45393857
0.034007739 -0.016377328 0.45375231
0.041680329 -0.019939575 0.45876503
-0.14879797 -0.00069579174 0.451076
-0.10159276 -0.0036131903 0.45290449
-0.097561814 -0.0068710609 0.4569861
-0.08532235 -0.0057140011 0.4594385
-0.074749045 -0.0047515407 0.45744836
-0.064810961 -0.0048513194 0.45570633
-0.055425454 -0.0052981917 0.45514074
-0.044598829 -0.0064091869 0.45836255
-0.037823766 -0.0064922678 0.45943499
0.016059168 -0.0092590954 0.45861229
0.024575142 -0.0092500886 0.45819902
0.030866137 -0.0092221145 0.45671824
-0.13227193 0.0028587568 0.45279127
-0.12528746 0.0057034227 0.45436561
-0.11427443 0.0063322783 0.45503375
-0.10576145 0.0031346839 0.45599079
-0.074459948 0.0040531042 0.4582389
-0.064633079 0.0054136873 0.45778731
-0.055047572 0.0051612086 0.4584851
-0.046755686 0.0039876746 0.45892468
-0.066346847 0.012844432 0.45967269
-0.058873244 0.012131371 0.45993042
-0.0010169937 0.028977353 0.45557138
0.0045615826 0.027465198 0.45689288
-0.094191238 0.039975777 0.45812055
-0.082759507 0.038874835 0.45602185
-0.076052569 0.039235562 0.4576712
-0.012674259 0.039532151 0.4548566
-0.0041393447 0.036133092 0.4560014
0.0033805459 0.035790261 0.45762235
-0.10190491 0.04434818 0.45834479
-0.094070427 0.042094529 0.45395935
-0.085598551 0.0433232 0.45259959
-0.075488366 0.042970657 0.45372313
-0.066611387 0.045399122 0.45371681
-0.059764281 0.049657188 0.45013502
-0.022785189 0.045246139 0.45445424
-0.015368004 0.044845697 0.45498657
-0.0056578252 0.044514846 0.45743668
0.0021825489 0.042029746 0.45905638
-0.11285521 0.055872507 0.4581902
-0.10577993 0.056612656 0.45539662
-0.063610204 0.056446411 0.45381007
-0.058093555 0.054259352 0.45339733
-0.016002385 0.050617769 0.4593277
-0.10350402 0.062040705 0.45708668
-0.094822258 0.064902559 0.45473427
-0.084023982 0.066390887 0.45274377
-0.074978627 0.065830842 0.45375812
-0.068432577 0.063150428 0.45589679
-0.072035618 -0.16030335 0.46103397
-0.085507527 -0.1539377 0.46188849
-0.034168262 -0.15508054 0.46352202
-0.10334012 -0.13255857 0.46469575
-0.007595303 -0.12475683 0.46354687
-0.11284277 -0.11357821 0.46977413
-0.10855189 -0.11693864 0.46037897
-0.0032511437 -0.11415615 0.46607047
-0.11309005 -0.10550693 0.46720046
-0.0032269452 -0.10071848 0.46550861
-0.11256054 -0.096261576 0.46390659
-0.0031915423 -0.097528934 0.4608472
-0.1100237 -0.087877601 0.46148995
-0.10979882 -0.084433988 0.4609111
-0.0024800946 -0.082903594 0.46396744
-0.11050045 -0.078408413 0.46453768
-0.10592986 -0.073162995 0.46345174
-0.0067386162 -0.074701801 0.46542037
-0.10281704 -0.065636851 0.46511841
-0.098437205 -0.062387802 0.4617793
-0.013459262 -0.06471131 0.46386537
-0.0097908955 -0.068406112 0.46882048
-0.10160898 -0.059738036 0.46639416
-0.09523394 -0.056665022 0.46492082
-0.089199498 -0.051869832 0.4657625
-0.031103194 -0.050117008 0.46118432
-0.024262322 -0.054000251 0.46392977
-0.01663045 -0.058326937 0.46508336
0.0054124552 -0.053028151 0.46178672
-0.11204744 -0.044239648 0.46397501
-0.083385751 -0.046238266 0.46685615
-0.075665139 -0.044406164 0.46368796
-0.036028922 -0.044355024 0.46359023
-0.028348681 -0.040043309 0.46908385
-0.0015900155 -0.043677963 0.46707991
0.0041856561 -0.044058815 0.46210241
0.011845862 -0.041517064 0.46116877
-0.10185649 -0.036488764 0.46340501
-0.097107016 -0.032017771 0.46508208
-0.084262148 -0.034985702 0.46618754
-0.0747298 -0.037778746 0.4620609
-0.069228016 -0.035072681 0.46079612
-0.042632777 -0.036314499 0.46048442
-0.03565162 -0.035079904 0.46349201
-0.025776073 -0.034402512 0.46567515
-0.0041327127 -0.035262469 0.4665685
0.0035469395 -0.035950121 0.46143687
0.050579153 -0.03405492 0.46199608
-0.093965583 -0.025699299 0.46508777
-0.083290271 -0.027551329 0.46392384
-0.03378595 -0.024750985 0.46175799
-0.024802102 -0.024502167 0.4641977
-0.01851829 -0.021478627 0.46897939
-0.0052111088 -0.024704799 0.46638912
0.0032645625 -0.023615535 0.46199685
0.046944968 -0.022771016 0.46430397
-0.09264189 -0.01439578 0.46503496
-0.034809485 -0.014696613 0.46171427
-0.024866113 -0.014810935 0.4653872
-0.018502541 -0.014917369 0.46863547
-0.0034108767 -0.015267475 0.46824569
0.0049525583 -0.014523526 0.46386227
0.03763783 -0.013609252 0.46149561
0.042080015 -0.016891625 0.46313587
-0.094912916 -0.0036463893 0.46221915
-0.084286839 -0.0021511531 0.46163455
-0.043504875 -0.0015775923 0.46068659
-0.033744648 -0.0040186122 0.46225473
-0.025328755 -0.0054605119 0.46655965
-0.018551186 -0.0094836308 0.46966207
-0.0021428321 -0.0094661862 0.46915618
0.0061243628 -0.0081172539 0.46702442
0.014398719 -0.0062662777 0.46626002
0.023163101 -0.0065021515 0.46560508
0.0335721 -0.0093848314 0.46462026
-0.14303657 0.0036457067 0.46198392
-0.13560063 0.0062325988 0.46551454
-0.12753733 0.008003206 0.46389225
-0.1115849 0.0079495888 0.46287823
-0.1034862 0.0059818528 0.46357906
-0.094946012 0.0047325483 0.46704385
-0.084329978 0.0046795285 0.46309018
-0.076240987 0.0071604922 0.46104097
-0.069871709 0.0078823054 0.46172062
-0.052489616 0.0089331158 0.46045917
-0.043804251 0.005298126 0.46156722
-0.035659939 0.0046876641 0.46485192
-0.026777534 0.003409496 0.46827158
-0.12232526 0.010196732 0.46552312
-0.11530669 0.0101594 0.46442148
-0.10624912 0.010156128 0.46536526
-0.091831468 0.013486208 0.46867517
-0.08443024 0.014244127 0.46528846
-0.074988768 0.014793114 0.46274745
-0.064819962 0.015852565 0.46230847
-0.054289851 0.015054456 0.46179977
-0.044727836 0.014726644 0.46513087
-0.036429673 0.013430608 0.46771973
-0.081946135 0.021126283 0.46884939
-0.075228944 0.023544138 0.4679884
-0.064670891 0.024109531 0.46631777
-0.05536231 0.025352329 0.46645617
-0.046254005 0.023719296 0.46747506
-0.037449293 0.021834951 0.46899685
-0.0053985259 0.029282916 0.46717286
0.0080395592 0.027379269 0.4643496
0.012020577 0.026488733 0.46771592
-0.093614429 0.038472533 0.46610278
-0.085679144 0.037250631 0.46496415
-0.07566224 0.037658889 0.46596569
-0.052366868 0.032026179 0.46880576
-0.014631934 0.036028437 0.46674609
-0.0078158351 0.034465022 0.46525589
0.0083739888 0.034204349 0.46160266
0.012033468 0.034152366 0.46828038
-0.11163588 0.049154196 0.46195614
-0.10370082 0.044038355 0.46642321
-0.099256523 0.040731117 0.4665378
-0.070023328 0.041312024 0.46235454
-0.066673964 0.04428323 0.46538687
-0.024902852 0.045612264 0.46567091
-0.017347746 0.040571637 0.46684566
-0.0031789651 0.048748177 0.46189576
0.0039389017 0.045098662 0.4642013
-0.12042553 0.055146981 0.46528602
-0.11698542 0.053313017 0.46338722
-0.05704657 0.056359563 0.46204001
-0.025316197 0.052698474 0.46346948
-0.01499756 0.053525608 0.46422365
-0.0058746771 0.053167179 0.46576491
-0.1152679 0.062209796 0.46675932
-0.10551142 0.065656632 0.46336901
-0.097517304 0.068644322 0.46215641
-0.071691528 0.068833724 0.46533978
-0.066376626 0.06331104 0.46354863
-0.029420953 0.060372896 0.46846768
-0.085456267 0.070696481 0.46230704
-0.078561977 0.071316659 0.46690094
-0.092013724 -0.15521334 0.47241527
-0.10309157 -0.14121437 0.472812
-0.11691256 -0.11311085 0.47723669
-0.11628506 -0.10688206 0.47561407
-0.0010809989 -0.10260721 0.47424233
-0.11495534 -0.091150597 0.47231936
-0.0010745621 -0.094513208 0.47297224
-0.1150761 -0.084533289 0.47358504
-0.0010780806 -0.084547825 0.47645158
-0.11376842 -0.075851306 0.47624373
-0.10968271 -0.071648419 0.47144899
-0.0050488599 -0.074171446 0.4748655
-0.11010849 -0.069694422 0.47340059
-0.10693071 -0.064329445 0.47387418
-0.012092236 -0.06140814 0.47383735
-0.0089864489 -0.065380745 0.47631398
-0.10289329 -0.057635423 0.47449675
-0.095319442 -0.053400032 0.47417381
-0.022604974 -0.052103952 0.47451743
-0.017055932 -0.055894256 0.47384304
0.002256674 -0.052793145 0.47580108
-0.092628568 -0.044276334 0.47799918
-0.087221779 -0.043029342 0.47318801
-0.032550994 -0.044369925 0.4745487
-0.025629079 -0.045225035 0.47513354
-0.018123936 -0.041528046 0.47783399
-0.0054908986 -0.044224154 0.47582948
-0.10274284 -0.037600636 0.4778142
-0.093268692 -0.034924436 0.47231179
-0.089065656 -0.035927031 0.47130305
-0.021350803 -0.035844781 0.47133964
-0.015409805 -0.034956481 0.4741191
-0.0098169064 -0.034696288 0.4706209
-0.014994643 -0.025308104 0.47263023
-0.0098435273 -0.022699203 0.47159573
-0.014916484 -0.015075539 0.47362307
-0.0084689232 -0.014459187 0.47161481
0.038635157 -0.011766097 0.47367603
0.043683875 -0.015649259 0.47468776
-0.022252545 -0.0021992153 0.47104463
-0.01539473 -0.0051512136 0.47382823
-0.0054781404 -0.0051443125 0.47402027
0.0051140785 -0.0030820246 0.47323763
0.015599404 -0.0023069168 0.47235042
0.026707083 -0.0051477049 0.47354245
0.0365384 -0.0095855119 0.47511554
-0.14336835 0.0059317588 0.47068131
-0.13829041 0.008252521 0.4773871
-0.097806454 0.006966684 0.47085369
-0.023432726 0.0060665281 0.4711979
-0.016733119 0.0044890605 0.47479567
-0.0032978763 0.0014742764 0.47827858
0.0018946466 0.00221686 0.47755051
-0.13100262 0.010453059 0.47645137
-0.12081608 0.012574765 0.472835
-0.11502799 0.012543475 0.47243631
-0.10422411 0.01315818 0.47551364
-0.096359432 0.015457438 0.47276777
-0.088899471 0.019032123 0.47063908
-0.032505564 0.016453531 0.47124943
-0.025674582 0.014363357 0.47515568
-0.016688872 0.010406153 0.47916609
0.018958272 0.019279599 0.47782731
0.021201767 0.019286297 0.47825336
-0.094929673 0.024610985 0.47682926
-0.085799851 0.025036369 0.47254738
-0.074205436 0.027793853 0.47077131
-0.066254094 0.027754616 0.47031826
-0.043239195 0.026576189 0.47126818
-0.03428489 0.025412712 0.47355276
-0.028033983 0.023447022 0.47769797
-0.011411908 0.028091371 0.47659755
-0.0048647737 0.025906648 0.47341466
0.0044666706 0.024300788 0.47463214
0.015356163 0.02410629 0.47658929
0.021232003 0.021554368 0.47917807
-0.093082689 0.0349405 0.47761285
-0.08502873 0.032682102 0.47532743
-0.07441777 0.034314621 0.47456387
-0.065127067 0.035007399 0.47486511
-0.055515245 0.036198393 0.47436008
-0.045062933 0.035083078 0.47549927
-0.036812343 0.03319449 0.47707385
-0.022467982 0.037620999 0.47542554
-0.016536824 0.032035846 0.47462758
0.012141991 0.034446001 0.47240043
-0.11801548 0.048715606 0.47885278
-0.10551213 0.04369431 0.47459465
-0.064885914 0.043565221 0.47551775
-0.055457104 0.043163668 0.47841454
-0.047895297 0.042731971 0.47868028
-0.026184699 0.04356809 0.4756622
0.0080570746 0.045793455 0.47266844
0.012201522 0.042358164 0.47476768
-0.12416953 0.051548976 0.47426039
-0.11775428 0.051976688 0.47762957
-0.056729317 0.058244091 0.47757894
-0.024572182 0.058157802 0.47496837
-0.015466385 0.059045874 0.47546852
-0.0055120164 0.058202278 0.47771683
0.0028283771 0.053138837 0.47717991
-0.10957316 0.067896314 0.47110054
-0.064199448 0.065216698 0.47553116
-0.057510585 0.064558707 0.47463265
-0.026119879 0.062694408 0.47664189
-0.016210333 0.062000658 0.47772798
-0.0099868253 0.061659075 0.47858694
-0.12129383 -0.10703593 0.4866465
-0.11705983 -0.075504735 0.48605257
-0.005553599 -0.070064209 0.48014197
-0.11352406 -0.067505881 0.48586261
-0.10989735 -0.061951563 0.48317644
-0.0067516742 -0.065271221 0.48618567
-0.10119864 -0.054735199 0.48064101
-0.096827015 -0.05142903 0.48180234
-0.021223817 -0.050009634 0.48089594
-0.015271666 -0.054830682 0.48391166
-0.0033695013 -0.050752178 0.48806849
-0.095430739 -0.045376167 0.48357448
-0.022324178 -0.047725536 0.48044884
-0.014775257 -0.044699255 0.4829092
-0.0070986464 -0.047313988 0.48390847
-0.10047476 -0.038025454 0.48327601
-0.09813948 -0.039110936 0.48300195
0.048508495 -0.018790908 0.48434162
-0.011153394 -0.00074897322 0.48107579
-0.0077881282 -0.00074801227 0.4805319
0.019340418 -0.00075932354 0.48747084
0.034693826 -0.0074501359 0.48018843
-0.011535184 0.0052239634 0.48147956
-0.0050376984 0.0054632965 0.48535821
0.0056568081 0.0026110108 0.48169565
0.010188305 0.0014913315 0.48372298
-0.13460661 0.01056665 0.48103413
-0.12545526 0.012814587 0.48186189
-0.11099537 0.019835385 0.48946184
-0.10618033 0.018267533 0.484467
-0.02241325 0.019459415 0.48232624
-0.015264872 0.014985486 0.4865391
-0.0067931926 0.011770619 0.48955122
0.017124245 0.019724259 0.48892254
0.02369309 0.019507606 0.48363778
-0.10223579 0.024536084 0.48317128
-0.099784166 0.023930818 0.48017481
-0.024034424 0.024776807 0.485962
-0.01516747 0.025605004 0.48551238
-0.0051455065 0.02222077 0.48383161
0.0034461929 0.022690048 0.48747057
0.016725129 0.025078939 0.4850795
0.021687014 0.027711958 0.48932391
-0.10191506 0.038886338 0.48462847
-0.097491369 0.034019537 0.48554575
-0.033443619 0.035911001 0.4838827
-0.024326349 0.033767179 0.48517624
-0.018990833 0.030606156 0.48104224
0.016739083 0.034889568 0.48273963
0.021603458 0.031002752 0.4874056
-0.13099958 0.049378421 0.48371798
-0.12484321 0.049183749 0.48272964
-0.11570396 0.047209259 0.48712134
-0.10880733 0.042776458 0.48952547
-0.064561792 0.045419492 0.48453656
-0.054305639 0.047280706 0.48399916
-0.04516203 0.045167845 0.48412704
-0.036708824 0.043888941 0.4854756
-0.028118044 0.043172561 0.48384261
0.013955037 0.045117076 0.48452967
-0.13081047 0.053853206 0.48272917
-0.12715426 0.057369303 0.48060113
-0.054648221 0.052801233 0.48657662
-0.048784111 0.05147513 0.48748031
-0.032435354 0.059714239 0.48075148
-0.0044350433 0.059711218 0.48088413
0.0049456367 0.055384737 0.48553383
0.010263273 0.051511146 0.48812726
-0.12537092 0.061941214 0.48401341
-0.0044675036 0.061899878 0.48483601
-0.12281321 -0.081482634 0.49615753
-0.0033956866 -0.076205879 0.49082831
-0.1151676 -0.064778812 0.49562308
-0.1127003 -0.057707481 0.49577516
-0.10612958 -0.054916322 0.49372199
-0.014809088 -0.051025815 0.49077886
-0.10340343 -0.043772422 0.49721384
-0.098579213 -0.047771595 0.49065426
-0.014167073 -0.046881653 0.49519467
-0.10465368 -0.039874669 0.49208021
0.026288645 -0.0030557741 0.49010721
-0.0011086471 0.0084895035 0.49755475
0.0042693312 0.0053618578 0.4943887
-0.1201162 0.01555439 0.49824122
-0.11405805 0.016357752 0.49468371
-0.010816158 0.01809812 0.49110082
-0.0052029388 0.017164038 0.49526638
0.0046594208 0.019974953 0.49504161
0.01154764 0.019926384 0.49410641
0.021879254 0.017609026 0.49362612
-0.11234574 0.023175774 0.49534687
-0.10718001 0.026248576 0.49322739
-0.023477655 0.028490061 0.4929224
-0.015740914 0.024196371 0.49298602
-0.0057461546 0.020081138 0.49766564
0.0069671758 0.022315519 0.49585754
0.010366486 0.022162313 0.49240056
0.022872983 0.023204591 0.49039915
-0.10448758 0.034460351 0.49694094
-0.099803813 0.033661548 0.49133596
-0.031172315 0.038527578 0.49651843
-0.027225509 0.03417813 0.49485299
0.021866972 0.033699617 0.4935407
-0.11438861 0.044170763 0.4985131
-0.10701783 0.040679112 0.49214324
-0.042274378 0.048988931 0.49113879
-0.03447061 0.045024347 0.49419394
-0.028492346 0.040325314 0.49018863
0.016542699 0.045236707 0.49419534
-0.06176427 0.052980639 0.49419779
-0.055102874 0.057251438 0.49306729
-0.045145337 0.055606175 0.49450615
-0.033347022 0.052187406 0.4943966
-0.12378025 -0.078584068 0.50042039
-0.11694209 -0.062221836 0.50363928
-0.0057742898 -0.065996282 0.50017667
-0.11297403 -0.055504978 0.50786418
-0.10528925 -0.051660821 0.50600511
-0.015177877 -0.054612562 0.50275367
-0.10549645 -0.045339338 0.50153154
0.0012245815 0.0086650774 0.50784481
-0.12264443 0.018262453 0.5086484
-0.11968666 0.018181056 0.50647908
-0.001898584 0.014416493 0.50229478
0.00121598 0.017993426 0.50403142
-0.12020957 0.024211492 0.50856173
-0.11599869 0.025553159 0.5053013
0.015175913 0.020173419 0.50013268
0.025983145 0.02396944 0.50645941
-0.11260072 0.034781136 0.50687665
-0.10885228 0.034599125 0.50442958
0.022211889 0.036549073 0.50115669
-0.12097389 0.046219889 0.50094968
-0.11597528 0.043754164 0.50021613
-0.035128452 0.046119846 0.50358611
-0.10926289 -0.053633168 0.51335526
-0.013114334 -0.05103872 0.51379186
-0.10932714 -0.046454377 0.51387942
0.003657524 0.0088127414 0.51648337
0.0021980531 0.014012687 0.51318753
-0.12340014 0.024489986 0.51423275
-0.12143797 0.031999502 0.51885772
-0.11854977 0.030352084 0.51179397
-0.11555073 0.041346028 0.51449358
0.0036875682 0.01494059 0.5205909
-0.12746122 0.028891433 0.52846897
-0.12291448 0.034833003 0.52510476
-0.11826847 0.037000351 0.52117252
