# .PCD v0.7 - Point Cloud Data file format
VERSION 0.7
FIELDS x y z
SIZE 4 4 4
TYPE F F F
COUNT 1 1 1
WIDTH 1419
HEIGHT 1
VIEWPOINT 0 0 0 1 0 0 0
POINTS 1419
DATA ascii
-0.20783603 0.13387105 0.84400004
-0.2028262 0.13283215 0.84366673
-0.19729041 0.13301925 0.84360009
-0.19233207 0.1324681 0.84260005
-0.18766987 0.13257013 0.84200007
-0.18249902 0.13238585 0.84083337
-0.17719942 0.13273469 0.84180003
-0.21671021 0.13978715 0.84400004
-0.21236266 0.13795841 0.84337503
-0.20746687 0.13756943 0.84250009
-0.20255791 0.13757849 0.84255558
-0.19773148 0.1369932 0.84380007
-0.19194613 0.13773386 0.84350008
-0.18755901 0.13740614 0.84150004
-0.18438976 0.13626111 0.8405
-0.17248367 0.13740575 0.84150004
-0.16829491 0.13970435 0.84350002
-0.21719639 0.14296114 0.84333342
-0.21213669 0.14232221 0.84150004
-0.20703542 0.14219527 0.84074998
-0.20246403 0.14243497 0.84216678
-0.19896185 0.14274523 0.84400004
-0.19158015 0.14230381 0.84333342
-0.18733613 0.14215328 0.8405
-0.17054121 0.14108735 0.84000003
-0.16694447 0.14234982 0.8416667
-0.16238229 0.14364611 0.84350002
-0.22114731 0.14816833 0.84400004
-0.21735309 0.14744166 0.84266675
-0.21290836 0.14709169 0.84066671
-0.20794156 0.14705347 0.84044451
-0.20319298 0.14719465 0.84285718
-0.18756323 0.14700285 0.84240007
-0.18438976 0.14804545 0.8405
-0.16792428 0.14566699 0.84000003
-0.1629689 0.14722764 0.84144443
-0.15742457 0.14755793 0.8433333
-0.15257344 0.14861703 0.84375006
-0.22207461 0.15269391 0.8434
-0.21718037 0.15224381 0.84200007
-0.21221131 0.15262702 0.84050006
-0.2077349 0.1519029 0.84120005
-0.20463523 0.15242462 0.84300005
-0.18515758 0.15359144 0.84400004
-0.18259043 0.15210789 0.84125006
-0.17119545 0.15417199 0.84000003
-0.16740088 0.15325606 0.84000009
-0.16285066 0.15203306 0.84083337
-0.1572068 0.15227374 0.84216678
-0.1524381 0.15242462 0.84300005
-0.14900354 0.1529341 0.84400004
-0.22722778 0.15885022 0.84400004
-0.22230472 0.15730663 0.84277779
-0.21718037 0.15716222 0.84200013
-0.21200985 0.1572212 0.84100002
-0.20734274 0.15716261 0.84200001
-0.204878 0.15753554 0.84400004
-0.18174422 0.15691808 0.84280014
-0.17787933 0.15822259 0.84066671
-0.17152256 0.15777025 0.84000003
-0.16764675 0.15781692 0.84025002
-0.16288359 0.15697533 0.84100008
-0.15711294 0.15709896 0.8416667
-0.15231718 0.15722406 0.84233344
-0.14817663 0.15773658 0.84357148
-0.23117183 0.16279429 0.84400004
-0.22735453 0.16232097 0.8432501
-0.22214314 0.16211252 0.84216678
-0.21749091 0.16326137 0.84157151
-0.21257196 0.16258927 0.84100014
-0.20780209 0.1630912 0.84087503
-0.20413974 0.16272974 0.84366673
-0.18110615 0.16236879 0.84350002
-0.1780075 0.16228256 0.8405
-0.17054121 0.16071428 0.84000003
-0.16857851 0.16071428 0.84000003
-0.16219977 0.16120496 0.84000003
-0.15741645 0.16245127 0.84028584
-0.15272175 0.16301829 0.84050006
-0.14742558 0.16217668 0.84250009
-0.14308742 0.16279429 0.84400004
-0.23180605 0.16759245 0.84357148
-0.2271075 0.16706477 0.84233344
-0.22295019 0.16689911 0.84150004
-0.21781896 0.16771635 0.84066671
-0.21315104 0.16732273 0.84033334
-0.20748885 0.16742711 0.84020007
-0.20279008 0.16734384 0.84250003
-0.18149182 0.16768982 0.84300005
-0.17839198 0.16758372 0.84000003
-0.16072774 0.16856506 0.84000003
-0.1570351 0.16832523 0.84125006
-0.15266502 0.16758813 0.84100002
-0.14733809 0.16601497 0.84200013
-0.14297387 0.16660693 0.84333342
-0.23198287 0.17244135 0.84359998
-0.22697286 0.17286615 0.84183335
-0.22268525 0.17259274 0.84050006
-0.2186272 0.17052776 0.84000003
-0.20174269 0.17147572 0.84080011
-0.19816133 0.17355499 0.84200001
-0.18515758 0.17133979 0.84400004
-0.18206733 0.17278281 0.84142864
-0.16256718 0.17317094 0.84140009
-0.15933207 0.1711368 0.84300005
-0.23217176 0.17695722 0.84375
-0.22701779 0.17782015 0.84200007
-0.22268562 0.17750277 0.8405
-0.19640398 0.17672852 0.8415001
-0.19271798 0.177517 0.8425715
-0.18765144 0.17739691 0.84280008
-0.18284781 0.17721632 0.84114289
-0.16592966 0.17869708 0.84150004
-0.16320458 0.17631856 0.84266675
-0.23051448 0.1812 0.84400004
-0.22709031 0.18256155 0.84300005
-0.22277436 0.18248516 0.84083343
-0.21960855 0.18328527 0.84000003
-0.1907154 0.18186691 0.84025002
-0.18733573 0.18241128 0.84050012
-0.1824141 0.1824009 0.84044451
-0.17787856 0.18375862 0.84066671
-0.17239748 0.18378817 0.84140009
-0.16756374 0.18173072 0.84280008
-0.22755644 0.18613009 0.84400004
-0.22321552 0.18776782 0.84250003
-0.21904147 0.18761246 0.84033334
-0.19016814 0.18721065 0.84000003
-0.18733495 0.1873221 0.84050006
-0.18267912 0.18758249 0.8416667
-0.17724191 0.18785407 0.84200001
-0.17317016 0.18744284 0.84325004
-0.16938126 0.18514407 0.84400004
-0.22175072 0.19218507 0.84316677
-0.21692322 0.19234687 0.84100002
-0.1902436 0.1921944 0.8403334
-0.18759519 0.19249897 0.8416667
-0.18334259 0.19233844 0.84342855
-0.17757936 0.19175845 0.84360009
-0.22065429 0.19796233 0.84400004
-0.21724573 0.19755214 0.84225011
-0.21306622 0.19800547 0.84000003
-0.19143629 0.19770674 0.84040004
-0.18766987 0.19749323 0.84200007
-0.1828842 0.19716418 0.84375
-0.17924146 0.1969763 0.84400004
-0.21748188 0.2026929 0.84316671
-0.21324022 0.20261279 0.84120005
-0.20979507 0.20389354 0.84000003
-0.19028133 0.20106852 0.8405
-0.18737231 0.20208994 0.84066671
-0.1827022 0.2023569 0.84177786
-0.17807925 0.20269172 0.84316671
-0.21671021 0.20683651 0.84400004
-0.21230513 0.20737128 0.84216666
-0.20691289 0.2078808 0.84025002
-0.203907 0.20978163 0.84000003
-0.18722409 0.20585623 0.84000003
-0.18249707 0.2070426 0.84083337
-0.17804366 0.20757689 0.84300005
-0.2119419 0.21192841 0.84333336
-0.20749126 0.21259248 0.84180003
-0.20333368 0.2131376 0.84033334
-0.18624274 0.21370701 0.84000003
-0.18242212 0.21240017 0.84162503
-0.17924146 0.21078059 0.84400004
-0.2077135 0.21755376 0.84350002
-0.20226562 0.21764997 0.84133339
-0.19776998 0.21771954 0.8403334
-0.19220671 0.21870089 0.8403334
-0.18697087 0.21706454 0.8403334
-0.18384308 0.21729642 0.84250009
-0.20685002 0.22064079 0.84400004
-0.20266621 0.22234973 0.84300005
-0.19762398 0.22320203 0.84250009
-0.19274038 0.2232464 0.8426668
-0.18760103 0.22173725 0.84316671
-0.2009339 0.22655691 0.84400004
-0.19698982 0.22655693 0.84400004
-0.20080177 0.11416566 0.8490001
-0.19708756 0.11279809 0.84866667
-0.19251136 0.1139793 0.84860003
-0.20609172 0.11879434 0.84900004
-0.20299709 0.11773311 0.84850001
-0.19769081 0.11752459 0.84700006
-0.192799 0.11755878 0.84725004
-0.18841137 0.11786187 0.84800005
-0.2107204 0.12408428 0.8490001
-0.20696181 0.12268871 0.84850001
-0.20271778 0.12252041 0.84733337
-0.19745766 0.12232772 0.84600002
-0.19236314 0.12223082 0.84533346
-0.18764618 0.12237464 0.84633344
-0.18330412 0.12304145 0.84820002
-0.21700218 0.12871295 0.84900004
-0.21284685 0.12760797 0.84825003
-0.20754521 0.12739456 0.84683341
-0.20239899 0.12726919 0.84600002
-0.19861805 0.12684004 0.84533334
-0.18636414 0.12613216 0.84500003
-0.18174911 0.12684965 0.84650004
-0.17888789 0.12840974 0.847
-0.2225356 0.13395002 0.84866667
-0.21762393 0.13245338 0.84755564
-0.21228197 0.13221002 0.84600008
-0.20753947 0.13090146 0.8452
-0.20215917 0.13008091 0.84500003
-0.17637092 0.13089298 0.84600008
-0.17328098 0.13368642 0.84700006
-0.22579587 0.13755806 0.84850001
-0.2224941 0.1373557 0.8472501
-0.21835843 0.13771276 0.84580004
-0.2149926 0.13600403 0.84500003
-0.19623601 0.13896561 0.84500003
-0.17155632 0.13600403 0.84500003
-0.16843836 0.13754509 0.8472001
-0.22743127 0.14269944 0.84812504
-0.22212236 0.14206636 0.8458333
-0.21894136 0.14192717 0.84500003
-0.19629438 0.14295693 0.84525001
-0.19327447 0.14390154 0.84500003
-0.16582921 0.14011841 0.84600002
-0.16253856 0.14153771 0.84740001
-0.1576003 0.14334741 0.84640008
-0.15271215 0.14378878 0.84725004
-0.14748442 0.14449759 0.84850001
-0.14459632 0.14458273 0.84900004
-0.2318801 0.14855018 0.84900004
-0.22737733 0.14721072 0.84700006
-0.22354822 0.1478503 0.84500003
-0.20117198 0.1478503 0.84500003
-0.19772658 0.14724028 0.84716672
-0.19268696 0.14716813 0.84675002
-0.18932572 0.14982466 0.84500003
-0.15187168 0.14593348 0.84533334
-0.14798781 0.14797428 0.84571439
-0.14287356 0.14761719 0.84820002
-0.23650879 0.15384011 0.8490001
-0.23255253 0.15230727 0.8478334
-0.22814122 0.15200785 0.84616673
-0.22486447 0.15179905 0.84500003
-0.20215218 0.1523381 0.84580004
-0.19940889 0.15184264 0.84800005
-0.19209245 0.1514371 0.84850001
-0.188618 0.15301254 0.84625006
-0.1464262 0.15184337 0.84525001
-0.142294 0.15217803 0.84711117
-0.13864516 0.15251763 0.8490001
-0.237599 0.15732217 0.8481667
-0.23209539 0.15793917 0.84616679
-0.22815512 0.15640593 0.84500003
-0.20214598 0.15731059 0.84633338
-0.19990481 0.15828213 0.84800005
-0.19022194 0.15846878 0.84900004
-0.18731216 0.15683432 0.8466
-0.18340258 0.15969655 0.84500003
-0.14588945 0.15673499 0.84500003
-0.142417 0.15773058 0.84637499
-0.13864516 0.15747693 0.84900004
-0.24179873 0.1634281 0.84900004
-0.23751926 0.16180561 0.84700006
-0.23374918 0.16265811 0.84500003
-0.20196316 0.16190951 0.84625006
-0.19940887 0.16274026 0.84800005
-0.18706314 0.16227758 0.8481667
-0.18361963 0.1628506 0.84600002
-0.14062554 0.16186167 0.84600002
-0.13772105 0.16267946 0.84820002
-0.24165633 0.16729638 0.84850001
-0.23802671 0.16782467 0.84616661
-0.23473637 0.16660687 0.84500003
-0.20117198 0.16561967 0.84500003
-0.19818678 0.16793306 0.84671432
-0.18684261 0.16802302 0.84716672
-0.18351111 0.16670486 0.84549999
-0.14792137 0.16963533 0.84533334
-0.14058414 0.1672492 0.84574997
-0.13753083 0.16724795 0.84825003
-0.2464274 0.17367733 0.8490001
-0.24224997 0.17250751 0.84780008
-0.23790918 0.17268282 0.84574997
-0.23473637 0.17154281 0.84500003
-0.1959735 0.17174405 0.84600002
-0.19307707 0.17246503 0.8476001
-0.188618 0.17278433 0.84625
-0.15756296 0.17297338 0.84619999
-0.15275648 0.17254627 0.84750003
-0.14658004 0.17235485 0.84900004
-0.14046325 0.17215183 0.84800005
-0.13856351 0.17126265 0.84850001
-0.24774989 0.17731415 0.8490001
-0.24250519 0.17710587 0.84800005
-0.23798001 0.17767674 0.84600008
-0.23473637 0.1794403 0.84500003
-0.19130009 0.17549156 0.84500003
-0.18932572 0.17549156 0.84500003
-0.16152221 0.17783229 0.84675002
-0.24774988 0.18108323 0.8490001
-0.24269566 0.18220226 0.84866667
-0.23727256 0.1828336 0.84700006
-0.23210387 0.18273094 0.84500003
-0.16602524 0.18382312 0.84700006
-0.16315234 0.18096071 0.84750009
-0.24179873 0.1862409 0.84900004
-0.23716484 0.18764499 0.84750009
-0.23200357 0.18752295 0.8458333
-0.22824538 0.18872873 0.84533334
-0.17097169 0.18976027 0.847
-0.16805211 0.18684652 0.84725004
-0.2379556 0.19262849 0.84842861
-0.23218682 0.19261506 0.84650004
-0.22802857 0.19244471 0.84574997
-0.22486447 0.19326094 0.84500003
-0.17550509 0.19326094 0.84500003
-0.17239694 0.19257669 0.84720004
-0.23693815 0.1972883 0.8481667
-0.23236929 0.19771537 0.84716678
-0.22742179 0.19774909 0.84625012
-0.22344965 0.19677502 0.84525001
-0.17663074 0.19736569 0.84566677
-0.17370221 0.19747227 0.84825003
-0.23584755 0.20310253 0.84900004
-0.23259825 0.2028639 0.84800005
-0.22724232 0.20250468 0.84650004
-0.22210075 0.20232534 0.84575003
-0.17560893 0.20226467 0.84549999
-0.17310417 0.20280263 0.84775001
-0.23287195 0.20607811 0.84900004
-0.2273303 0.20750843 0.84775007
-0.22229704 0.20744996 0.8465001
-0.2183696 0.2084803 0.84533334
-0.17550509 0.2051072 0.84500003
-0.17216541 0.20583539 0.84800005
-0.22735019 0.21196684 0.84875
-0.22269133 0.21277082 0.84800005
-0.21821269 0.21226901 0.84600002
-0.21400541 0.2139919 0.84500003
-0.17768757 0.21292695 0.84600013
-0.22196148 0.21599673 0.84900004
-0.21709883 0.21736863 0.84771436
-0.2122201 0.21813437 0.84575003
-0.18105404 0.21861516 0.84633338
-0.17876926 0.21706323 0.84800005
-0.21588311 0.22280905 0.84850001
-0.21253347 0.22241516 0.84700006
-0.20765056 0.22294253 0.84525001
-0.18636414 0.22386377 0.84500003
-0.18324856 0.22217266 0.84733337
-0.21235149 0.22720297 0.84825003
-0.2078023 0.22757719 0.84687507
-0.20264773 0.22832212 0.84566665
-0.19745663 0.22907048 0.84600008
-0.19240105 0.22794792 0.84550005
-0.18772009 0.22760336 0.84666675
-0.18427077 0.22591533 0.84900004
-0.21005915 0.23186651 0.84900004
-0.20667204 0.2324367 0.84866667
-0.20233007 0.2328378 0.84820002
-0.19748001 0.23233227 0.84780008
-0.19251136 0.2329475 0.84860003
-0.18911804 0.23172995 0.84850001
-0.1913422 0.099539906 0.85400003
-0.18934679 0.099539906 0.85400003
-0.20131922 0.10353071 0.85400003
-0.19671462 0.10297125 0.85350001
-0.19211528 0.10241237 0.85300004
-0.1881828 0.10244267 0.85325003
-0.21528706 0.10951693 0.85400003
-0.21179567 0.1087663 0.85333341
-0.20714363 0.10776938 0.85333341
-0.20230405 0.10757043 0.85214293
-0.19762942 0.10714226 0.85100001
-0.19268385 0.10715703 0.85111105
-0.1880177 0.10733268 0.85250008
-0.21673167 0.1126303 0.85340005
-0.21179737 0.11224597 0.85200006
-0.20737302 0.11271039 0.85100001
-0.20306444 0.11233583 0.85016668
-0.19193554 0.11148654 0.85000002
-0.18757385 0.11290936 0.852
-0.22177213 0.11799741 0.85400003
-0.21802497 0.11736019 0.8530001
-0.21251567 0.11706972 0.85088891
-0.20788527 0.11698201 0.85025001
-0.18617515 0.11584958 0.85166669
-0.18392538 0.11821758 0.852
-0.22526407 0.12348477 0.85400003
-0.22207607 0.1223792 0.85325003
-0.21746857 0.1227382 0.85160011
-0.21299669 0.12226808 0.85016668
-0.18127768 0.12258887 0.85124999
-0.22706048 0.12786189 0.85325003
-0.22236682 0.12734978 0.85149997
-0.21767436 0.12626547 0.85033339
-0.17790243 0.12713796 0.85175002
-0.17496826 0.12916777 0.85200006
-0.23111491 0.13238594 0.85350001
-0.22754523 0.13304389 0.85133338
-0.22363488 0.13156396 0.85033339
-0.17233573 0.13256355 0.85080004
-0.16939275 0.13346179 0.85400003
-0.13746628 0.13346179 0.85400003
-0.2352411 0.13745259 0.85400003
-0.23220973 0.13746041 0.85228574
-0.22818111 0.13780183 0.85000002
-0.16710274 0.13621464 0.85250002
-0.16295773 0.13906699 0.85166669
-0.1573581 0.13939357 0.85366672
-0.1524318 0.139448 0.85400003
-0.14732897 0.13933915 0.85333335
-0.14245477 0.139448 0.85400003
-0.13717662 0.1376612 0.85375005
-0.23780906 0.14271769 0.85366672
-0.23307383 0.14269787 0.85128576
-0.16065511 0.14078091 0.85000002
-0.15776819 0.14086372 0.85049999
-0.15249287 0.14174096 0.85100001
-0.14783263 0.14185674 0.85050005
-0.14274113 0.14272691 0.85124993
-0.13751939 0.14262909 0.85257155
-0.24721354 0.14942503 0.85400003
-0.24179907 0.14768921 0.85320008
-0.23762999 0.14705442 0.85183334
-0.23356907 0.14745866 0.85033339
-0.14079452 0.14673908 0.85000002
-0.13697335 0.14741865 0.85250002
-0.25120437 0.15241814 0.85400003
-0.24792001 0.15223908 0.85300004
-0.24226363 0.15271702 0.85150003
-0.23744938 0.15137324 0.85000008
-0.19751272 0.15278649 0.85050005
-0.19383232 0.15275715 0.85033339
-0.1363471 0.15265749 0.85200006
-0.25120437 0.15740666 0.85400003
-0.24772684 0.15709947 0.85233343
-0.24367623 0.15732466 0.85140008
-0.19704209 0.15757833 0.85133338
-0.19371042 0.1568992 0.85125005
-0.1360679 0.1569441 0.85150003
-0.13301149 0.15791664 0.85316676
-0.12948465 0.15940206 0.85400003
-0.25120437 0.16239515 0.85400003
-0.24743135 0.1626116 0.85200006
-0.24364485 0.16217828 0.85025001
-0.19673225 0.16233212 0.85142863
-0.19146585 0.16242169 0.85100001
-0.1368224 0.16064151 0.85000002
-0.13335134 0.16268876 0.85162503
-0.12940884 0.1622995 0.85350001
-0.25140905 0.16718709 0.85300004
-0.24759696 0.16723208 0.8512001
-0.24421313 0.16769069 0.85049999
-0.19640416 0.16659968 0.85000002
-0.19287927 0.16701856 0.85087496
-0.13276552 0.16741981 0.85128582
-0.12943411 0.16731912 0.85366672
-0.25126749 0.17272626 0.85083336
-0.24747694 0.17130069 0.85033339
-0.24406958 0.17057179 0.85000002
-0.19143902 0.17057179 0.85000002
-0.14873876 0.17255785 0.85000002
-0.13648568 0.17276202 0.85100001
-0.13282537 0.17185064 0.8524
-0.12948465 0.17137448 0.85400003
-0.2520138 0.17752299 0.85000002
-0.15759367 0.17749551 0.85224998
-0.13602948 0.17655788 0.85333335
-0.13347547 0.17536528 0.85400003
-0.2515173 0.18298467 0.85000002
-0.24737966 0.18381219 0.85000008
-0.16283095 0.18270127 0.85100001
-0.25131667 0.1876744 0.85100001
-0.24719398 0.18756413 0.85049999
-0.24340758 0.18778431 0.85000008
-0.16600877 0.18789318 0.852
-0.16340654 0.18534233 0.85400003
-0.2513535 0.19242825 0.85180008
-0.24733929 0.19264482 0.85100001
-0.24312441 0.19245577 0.85016674
-0.17058539 0.19440448 0.85000002
-0.16799892 0.1918764 0.852
-0.25032189 0.1966216 0.85100001
-0.24720089 0.19744 0.85166669
-0.24253814 0.19762887 0.85020012
-0.17144811 0.1979472 0.85100007
-0.16926053 0.1971615 0.85333335
-0.24521814 0.20330095 0.85400003
-0.24231195 0.20167895 0.85220003
-0.23829815 0.20250821 0.8506667
-0.17123243 0.2020296 0.85074997
-0.16869555 0.20306231 0.85300004
-0.24122731 0.20529637 0.85400003
-0.23774749 0.20786352 0.8522501
-0.23314624 0.20830691 0.85000002
-0.17058539 0.20632084 0.85000002
-0.16720036 0.20761783 0.8530001
-0.15941572 0.20928718 0.85400003
-0.13838272 0.20716962 0.85350007
-0.23709762 0.21215659 0.85350001
-0.23247302 0.21223861 0.85116667
-0.22818111 0.21426509 0.85000002
-0.17476287 0.21451716 0.85100001
-0.16739734 0.21228027 0.85400003
-0.16240883 0.21228027 0.85400003
-0.15941572 0.21228027 0.85400003
-0.14704423 0.21247983 0.85400003
-0.14245477 0.21228029 0.85400003
-0.13838233 0.212156 0.85350001
-0.2352411 0.2152734 0.85400003
-0.23217583 0.21741347 0.8530001
-0.22745594 0.21750033 0.85100001
-0.22271943 0.21774068 0.85000002
-0.17622539 0.21733874 0.85166681
-0.17228433 0.21514736 0.85350001
-0.15875059 0.21660367 0.85400003
-0.14744329 0.21577224 0.85400003
-0.14345248 0.2152734 0.85400003
-0.13946167 0.2152734 0.85400003
-0.22739246 0.22259545 0.8530001
-0.22223669 0.22222278 0.85100007
-0.2182508 0.22320235 0.85000002
-0.1813193 0.22370921 0.8506667
-0.1784246 0.22157852 0.85266674
-0.15143409 0.22325501 0.85400003
-0.22626176 0.22624812 0.85400003
-0.22201131 0.22797684 0.85300004
-0.21751396 0.22744232 0.85100001
-0.2142787 0.2281675 0.85000002
-0.18282206 0.22757478 0.85149997
-0.15342951 0.22624812 0.85400003
-0.22185206 0.23181152 0.85366672
-0.21767262 0.23239739 0.8524
-0.21320598 0.2330759 0.85100001
-0.20832051 0.23412566 0.85000002
-0.18673573 0.23286548 0.85120004
-0.18414125 0.23096587 0.85300004
-0.21728246 0.23655772 0.85400003
-0.21204595 0.23794219 0.85300004
-0.20763268 0.23745432 0.85125005
-0.20248136 0.23724483 0.85050005
-0.19751331 0.23724481 0.85049999
-0.19254524 0.23724483 0.85049999
-0.18748489 0.23728767 0.85280001
-0.21129626 0.24121365 0.85400003
-0.2071835 0.24207012 0.85350001
-0.20262985 0.24167287 0.85280001
-0.19754219 0.24218448 0.85320008
-0.19257677 0.24155895 0.8524
-0.18923593 0.24207012 0.85350001
-0.19533302 0.24520448 0.85400003
-0.19233991 0.24620217 0.85400003
-0.19123663 0.092988923 0.85800004
-0.18722653 0.091985576 0.85799998
-0.182238 0.091997743 0.85811108
-0.17841285 0.09309788 0.85900003
-0.19725029 0.0990026 0.85800004
-0.19312619 0.097439125 0.85659999
-0.18737532 0.097436972 0.85525
-0.18237837 0.097363666 0.85742861
-0.17841285 0.096108519 0.85900003
-0.21755105 0.10413687 0.85900003
-0.21184601 0.10354418 0.85825002
-0.20721395 0.10298237 0.85775006
-0.20281178 0.10128164 0.85750008
-0.19855836 0.1016542 0.85500002
-0.18557303 0.10265307 0.85500002
-0.18316279 0.10198058 0.85775006
-0.22110729 0.10762279 0.85799998
-0.21709307 0.10742181 0.85640013
-0.21241423 0.10633448 0.85650009
-0.20754819 0.10564969 0.85500002
-0.18557303 0.10764743 0.85500002
-0.18421942 0.10702277 0.85800004
-0.22658296 0.1141723 0.85900003
-0.2231829 0.1119678 0.85750008
-0.21953462 0.11164291 0.85500002
-0.18557303 0.11164291 0.85500002
-0.18421942 0.11203464 0.85800004
-0.22682095 0.11804831 0.85800004
-0.22379157 0.11677252 0.85600007
-0.18245584 0.11777373 0.85600007
-0.23046291 0.1231319 0.8585
-0.22755837 0.12191556 0.85700005
-0.17933086 0.12325108 0.85700005
-0.23248744 0.12797157 0.85733342
-0.22852448 0.12662597 0.85500002
-0.17652407 0.12648892 0.85633337
-0.17419566 0.12907386 0.85800004
-0.14027819 0.12822191 0.85900003
-0.13664681 0.1281088 0.85825002
-0.24063258 0.13424318 0.85900003
-0.23725596 0.1325442 0.85840005
-0.23379195 0.13277313 0.85600007
-0.171455 0.13136181 0.85766667
-0.1681814 0.13408691 0.85800004
-0.14629947 0.13424318 0.85900003
-0.14220305 0.1326609 0.85850006
-0.13792312 0.13223512 0.8568334
-0.13336031 0.13254422 0.85839999
-0.24035245 0.13809484 0.85800004
-0.23736212 0.13731356 0.85625005
-0.16598298 0.13593304 0.85700005
-0.16331309 0.13726643 0.85700005
-0.158034 0.1379891 0.85733336
-0.15305711 0.13801593 0.85750008
-0.14749217 0.13706917 0.85659999
-0.14278841 0.13677329 0.85600007
-0.13962497 0.13561581 0.85500002
-0.13304821 0.13743746 0.85640001
-0.25066799 0.14427862 0.85900003
-0.24665384 0.14427862 0.85900003
-0.24310307 0.14247186 0.85780001
-0.23951204 0.14160903 0.85500002
-0.13277274 0.1423739 0.85720009
-0.25165915 0.14748716 0.85725003
-0.24739201 0.14697348 0.85600007
-0.24350753 0.14560452 0.85500002
-0.13301741 0.14740847 0.85620004
-0.13174674 0.15226799 0.85737503
-0.12823567 0.15431406 0.85900003
-0.13163401 0.15559322 0.85500002
-0.12766698 0.1576851 0.85687506
-0.1242215 0.15832824 0.85900003
-0.12678662 0.16277547 0.85600007
-0.12402868 0.16209042 0.85766673
-0.126957 0.16733599 0.85580009
-0.12407688 0.16716529 0.85800004
-0.12736683 0.17277776 0.85766667
-0.1242215 0.17037076 0.85900003
-0.15797332 0.17998616 0.85700005
-0.14961369 0.17557064 0.85500002
-0.13694797 0.17998616 0.85700005
-0.13197808 0.17753506 0.85725003
-0.1290876 0.17618668 0.85800004
-0.16088127 0.18288127 0.85650003
-0.15633489 0.1804062 0.85900003
-0.14027819 0.18241328 0.85900003
-0.13710776 0.18220094 0.85800004
-0.1335358 0.18100522 0.85866666
-0.16559562 0.18955483 0.85500002
-0.1641719 0.18821518 0.85800004
-0.16607982 0.19311504 0.85750008
-0.24950075 0.19954352 0.85500002
-0.16718569 0.1965189 0.85633337
-0.24837145 0.20224844 0.85800004
-0.16682175 0.20165844 0.85720009
-0.16436324 0.20449124 0.85900003
-0.1412001 0.20336984 0.8585
-0.1375137 0.20249949 0.85785723
-0.13425694 0.20449124 0.85900003
-0.24636671 0.20625794 0.85800004
-0.24340968 0.20735404 0.85700005
-0.16559562 0.20553675 0.85500002
-0.1624406 0.20759322 0.85642856
-0.15915886 0.20826268 0.85800004
-0.15031363 0.20850542 0.85900003
-0.14685416 0.20767456 0.85833335
-0.14287201 0.20789665 0.85650009
-0.1356295 0.20753449 0.85500002
-0.13410065 0.20726031 0.85800004
-0.24149606 0.21239471 0.8585
-0.23951204 0.21152999 0.85500002
-0.16559562 0.21352772 0.85500002
-0.15684961 0.21185753 0.85633343
-0.15299763 0.21206409 0.85716671
-0.14837436 0.21039927 0.85650003
-0.13578813 0.2127786 0.85600007
-0.13420485 0.21243791 0.85866666
-0.24063258 0.21653378 0.85900003
-0.2371262 0.21711171 0.85600007
-0.17558433 0.21952094 0.85500002
-0.1719871 0.21803203 0.85700005
-0.16754664 0.21678065 0.85680008
-0.16239922 0.21712366 0.85500002
-0.15693875 0.21785615 0.85500002
-0.1526103 0.2175232 0.85500002
-0.14761595 0.21872185 0.85500002
-0.14228864 0.2168573 0.85500002
-0.13748243 0.21713023 0.85659999
-0.23691356 0.22186014 0.85825002
-0.23299675 0.22297391 0.85675007
-0.17666098 0.2233718 0.85700005
-0.17319211 0.2202912 0.85800004
-0.16703936 0.22121698 0.85900009
-0.16337048 0.22269784 0.85799998
-0.15766689 0.22260472 0.85533333
-0.15294325 0.22218463 0.85500002
-0.1477295 0.22269109 0.85566676
-0.14236966 0.22204626 0.85799992
-0.13827111 0.22054794 0.85900003
-0.23278995 0.22756152 0.85820007
-0.22752559 0.22751191 0.85500002
-0.18157755 0.22950967 0.85500002
-0.17904943 0.22711 0.85725003
-0.1629622 0.22715032 0.85866666
-0.15742594 0.22709253 0.85557151
-0.15211084 0.22801135 0.85500002
-0.14790136 0.22695458 0.85666674
-0.14420837 0.22744086 0.8585
-0.23108721 0.23107271 0.85833335
-0.22720456 0.23239575 0.85680008
-0.22353011 0.23350513 0.85500002
-0.18168442 0.23255681 0.85740006
-0.1607575 0.23195392 0.8585
-0.15709956 0.23234113 0.85660011
-0.15269896 0.23264283 0.85550004
-0.14805612 0.23219988 0.85755563
-0.14429237 0.2305834 0.85900003
-0.22732273 0.2363292 0.85800004
-0.22298761 0.2369867 0.85675007
-0.2175369 0.23849949 0.85500002
-0.18557303 0.23750062 0.85500002
-0.18411207 0.23719387 0.85750008
-0.15715586 0.23733217 0.85800004
-0.15202442 0.23714718 0.85733342
-0.14830655 0.23760819 0.85900003
-0.22193804 0.24098054 0.8585
-0.21723419 0.24227402 0.85775
-0.2132902 0.24330258 0.85666674
-0.20954593 0.24349383 0.85500002
-0.18676376 0.24240546 0.85680002
-0.18443413 0.24162236 0.85900003
-0.15633489 0.24162236 0.85900003
-0.15308762 0.24176705 0.85880005
-0.21184719 0.24692652 0.85825008
-0.20685159 0.24685231 0.85625005
-0.2022374 0.2470376 0.85620004
-0.197675 0.2466352 0.85550004
-0.19256513 0.24948706 0.85500002
-0.18816759 0.2473304 0.85642856
-0.18443413 0.24764363 0.85900003
-0.20739543 0.25050837 0.8585
-0.20207682 0.25192082 0.8584286
-0.19721219 0.2523194 0.85783339
-0.19208905 0.25317314 0.85733336
-0.18722616 0.252368 0.85800004
-0.18443415 0.25266135 0.85900009
-0.19238779 0.25657591 0.85866666
-0.18744475 0.25667551 0.85900003
-0.18443413 0.25667551 0.85900003
-0.18752643 0.08455532 0.86400002
-0.1824795 0.08455532 0.86400002
-0.17945135 0.08455532 0.86400002
-0.19560151 0.088592857 0.86400002
-0.19223961 0.087430246 0.86250007
-0.18740742 0.087137841 0.86160004
-0.18240649 0.087459087 0.86080009
-0.17719182 0.087464236 0.86283338
-0.17339504 0.088592857 0.86400002
-0.20569536 0.094649166 0.86400002
-0.20255052 0.094594389 0.8635
-0.19765139 0.092485897 0.86266661
-0.1933015 0.091752224 0.8605001
-0.17629907 0.092052348 0.86128581
-0.17339504 0.092630401 0.86400002
-0.22285491 0.09868671 0.86400002
-0.21725297 0.097810671 0.86339998
-0.21293336 0.097937636 0.8633334
-0.20741361 0.097535715 0.86275005
-0.20261419 0.097561255 0.86120003
-0.19782561 0.096276343 0.86050004
-0.17696936 0.097422659 0.86175001
-0.22735448 0.10284168 0.86287498
-0.22221065 0.10242547 0.86150002
-0.21740365 0.10113627 0.86079997
-0.21290389 0.10130224 0.86050004
-0.20787859 0.10029753 0.86050004
-0.18123735 0.10281164 0.8605001
-0.17857073 0.10126107 0.86300009
-0.23180515 0.10770823 0.8635
-0.2277253 0.10729512 0.86180001
-0.2248373 0.10827695 0.86000001
-0.18200284 0.10749082 0.86175001
-0.2359769 0.11483687 0.86400002
-0.23267993 0.11268675 0.86300004
-0.22826529 0.1119979 0.86080009
-0.18212557 0.11260008 0.86233342
-0.236918 0.11783063 0.86374998
-0.23227531 0.11752398 0.86150002
-0.22885615 0.11631464 0.86000001
-0.18157986 0.11716557 0.86133337
-0.17945135 0.11887441 0.86400002
-0.1421041 0.11887441 0.86400002
-0.13907595 0.11887441 0.86400002
-0.2409538 0.12287579 0.86375004
-0.23690903 0.12293483 0.86214292
-0.23244035 0.12187554 0.86025
-0.18062998 0.12033349 0.86000001
-0.17750494 0.12308808 0.86240005
-0.14614165 0.12291194 0.86400002
-0.14230174 0.12299547 0.86257148
-0.1373367 0.12235738 0.86214286
-0.13329883 0.124008 0.86320013
-0.24242602 0.12814686 0.86300009
-0.23817578 0.127514 0.86100006
-0.23488443 0.12636176 0.86000001
-0.17500776 0.12665562 0.86200005
-0.17258833 0.12819584 0.8633334
-0.14765364 0.12814686 0.86300004
-0.14302032 0.12731341 0.86100006
-0.13843207 0.12636176 0.86000001
-0.13263318 0.12758806 0.86150002
-0.12825942 0.12824559 0.86366671
-0.24256985 0.13223259 0.8616001
-0.23890328 0.1303806 0.86000001
-0.17097957 0.13068382 0.86200005
-0.16776358 0.13354987 0.86100006
-0.16402473 0.13479015 0.86250007
-0.15907931 0.13486829 0.86300004
-0.15168573 0.13419537 0.86300009
-0.14788213 0.13217102 0.86120003
-0.14384654 0.13110095 0.86033338
-0.13097253 0.13196406 0.86050004
-0.12774995 0.13277489 0.86250007
-0.12494455 0.1330058 0.86400002
-0.25212708 0.13906211 0.86400002
-0.24645889 0.13822903 0.86300004
-0.24292211 0.13741359 0.86000001
-0.16145444 0.13594745 0.86133337
-0.15692405 0.13575637 0.86225003
-0.15255794 0.13646176 0.86033338
-0.13039438 0.13741359 0.86000001
-0.12774995 0.13781306 0.86250007
-0.25286958 0.14242998 0.86240005
-0.24849308 0.14223169 0.86120003
-0.24493156 0.14042774 0.86000001
-0.13039438 0.14243716 0.86000001
-0.12774995 0.14285122 0.86250007
-0.13039438 0.14746071 0.86000001
-0.12771264 0.14784622 0.86225009
-0.12494455 0.14915596 0.86400002
-0.12723808 0.15215237 0.86040002
-0.12460713 0.15277746 0.86166668
-0.12326362 0.1574778 0.86166668
-0.12249897 0.16272041 0.86100006
-0.12249897 0.16774979 0.86100006
-0.12361097 0.17292912 0.86175001
-0.12709433 0.17800622 0.86033338
-0.12403061 0.17707495 0.86233342
-0.1607224 0.18484975 0.86100006
-0.15797776 0.18315654 0.86250007
-0.1548668 0.18103625 0.86200005
-0.13742736 0.18463506 0.86000001
-0.13178493 0.18336701 0.86033338
-0.12763916 0.18199079 0.86175001
-0.12479994 0.18225449 0.86300004
-0.16231325 0.18782304 0.8623333
-0.14076811 0.18506445 0.86200005
-0.13754693 0.18781315 0.86075008
-0.13260829 0.18794012 0.86133337
-0.12775034 0.18718784 0.86250007
-0.12494455 0.18751261 0.86400002
-0.16420057 0.19170342 0.86166668
-0.13778721 0.1921698 0.86225009
-0.13273621 0.19215113 0.86216664
-0.12793539 0.19250408 0.86374998
-0.16656402 0.19870102 0.86000001
-0.16493729 0.19714904 0.86200011
-0.14084977 0.19827044 0.86250007
-0.137614 0.1969565 0.86116672
-0.13274489 0.19719958 0.86222219
-0.12817459 0.1972027 0.86400002
-0.25095981 0.20271988 0.86000001
-0.16281419 0.20305565 0.86142862
-0.14698072 0.20342529 0.86300004
-0.14298625 0.20250563 0.86080009
-0.13264407 0.20251451 0.86157155
-0.1289821 0.20265338 0.86400002
-0.24837992 0.2070958 0.86150002
-0.15727645 0.20662557 0.86233342
-0.15270072 0.2070118 0.86114293
-0.14865184 0.20597208 0.86100006
-0.13147107 0.20757332 0.86180001
-0.1289821 0.20568153 0.86400002
-0.24650823 0.21225476 0.86200005
-0.24392684 0.21176228 0.86000001
-0.13170291 0.21225534 0.86200005
-0.24298471 0.21779412 0.86199999
-0.13275337 0.21736138 0.86228573
-0.24255237 0.22239003 0.86225003
-0.23890328 0.22281413 0.86000001
-0.17218968 0.22244132 0.8605001
-0.16876945 0.22307323 0.86100006
-0.14044149 0.22482355 0.86000001
-0.13742736 0.22281413 0.86000001
-0.13379516 0.22245479 0.86250007
-0.24165973 0.2275379 0.86266673
-0.23843241 0.22755277 0.86120003
-0.17601305 0.22836812 0.86199999
-0.17245454 0.22686616 0.86266673
-0.16789387 0.22727375 0.86166668
-0.16455458 0.22884238 0.86000001
-0.14152786 0.22797072 0.86049998
-0.13723384 0.22796111 0.86300004
-0.13488212 0.22560781 0.86300004
-0.24001446 0.23192556 0.86400002
-0.23668236 0.23264197 0.86166668
-0.23287502 0.23286125 0.86000001
-0.18062998 0.23487066 0.86000001
-0.17802715 0.23239632 0.86200011
-0.16781798 0.23232928 0.86300009
-0.16369338 0.23306374 0.86075002
-0.14266983 0.2328862 0.86133337
-0.13834938 0.232509 0.86366671
-0.2357038 0.23568998 0.86300004
-0.2328355 0.23685221 0.86233342
-0.22811756 0.2391673 0.86100006
-0.18184532 0.23816201 0.86100006
-0.17913981 0.23656164 0.86250007
-0.16623367 0.23784354 0.86350006
-0.16233324 0.23755741 0.86100006
-0.14655493 0.2380237 0.86050004
-0.14287554 0.23758838 0.86257148
-0.13907595 0.23596308 0.86400002
-0.22623652 0.24232501 0.86150002
-0.2228279 0.24290836 0.86000001
-0.21880904 0.24491777 0.86000001
-0.18257453 0.24295655 0.86160004
-0.17945135 0.24000064 0.86400002
-0.16522428 0.24288872 0.8635
-0.16187005 0.24239619 0.86175007
-0.15785651 0.24290836 0.86000001
-0.15182823 0.24357817 0.86000001
-0.14721088 0.24266855 0.86200011
-0.1430575 0.24125311 0.86366671
-0.22588307 0.24605693 0.86400002
-0.22200337 0.24615952 0.86199999
-0.21717717 0.24836554 0.86150002
-0.21278076 0.24893664 0.86000001
-0.18198594 0.24740538 0.86166668
-0.1793475 0.24894036 0.8635
-0.1651924 0.24788353 0.8633334
-0.16194764 0.24754894 0.86216676
-0.15783314 0.24750137 0.86060011
-0.15238665 0.24778914 0.86100012
-0.14803094 0.24685214 0.86325002
-0.21578921 0.25211325 0.86400002
-0.21176872 0.25200728 0.86133337
-0.20787859 0.25310254 0.86050004
-0.20273364 0.25496492 0.86000001
-0.1816697 0.25300413 0.86016673
-0.1776291 0.25303131 0.86300004
-0.17238566 0.254132 0.86400002
-0.16754608 0.25225443 0.86333334
-0.16252036 0.25273812 0.86200011
-0.15761377 0.25209725 0.8605001
-0.1528216 0.25248811 0.86183333
-0.14916979 0.25110388 0.86400002
-0.20755386 0.25662607 0.8633334
-0.20312655 0.25680178 0.86166668
-0.19805551 0.25843018 0.86150002
-0.19276199 0.25908414 0.86033338
-0.1877715 0.25913432 0.86050004
-0.18232249 0.25830045 0.86040002
-0.17704339 0.2576054 0.86211109
-0.17218614 0.25787079 0.86300004
-0.16769353 0.25811616 0.86285716
-0.16267142 0.2573202 0.86200005
-0.15776584 0.25737354 0.86133337
-0.15358201 0.25699982 0.86233342
-0.20165783 0.26018831 0.86400002
-0.19537511 0.26190361 0.86300004
-0.19212759 0.26160014 0.86200005
-0.18730938 0.26291299 0.86300004
-0.18226831 0.26291299 0.86300004
-0.1772953 0.26301417 0.86333334
-0.17258911 0.26267773 0.8633334
-0.16714506 0.26190361 0.86300009
-0.16250303 0.26267773 0.8633334
-0.15753944 0.26283249 0.8634001
-0.15320733 0.26018831 0.86400002
-0.19740793 0.084897846 0.86750007
-0.19256638 0.08282119 0.86700004
-0.18756202 0.082268342 0.86650002
-0.18260668 0.082316101 0.86700004
-0.17688234 0.083762623 0.8662501
-0.17252678 0.084366351 0.86725008
-0.20196828 0.088444717 0.86750007
-0.19740328 0.087448202 0.86600012
-0.1718214 0.087304823 0.86625004
-0.16872415 0.0882928 0.86766672
-0.22742979 0.09433829 0.86733341
-0.2226166 0.093964152 0.8670001
-0.2175514 0.092950478 0.8670001
-0.21248695 0.093963757 0.8670001
-0.20762506 0.09254548 0.8670001
-0.203078 0.091805711 0.86575001
-0.19987012 0.090716504 0.86500007
-0.17164075 0.092774138 0.86533344
-0.1691343 0.09254688 0.86700004
-0.23173243 0.09801589 0.86700004
-0.22728635 0.097846322 0.86550009
-0.22210231 0.096779838 0.86500013
-0.21199676 0.096779831 0.86500007
-0.20997566 0.096779831 0.86500007
-0.17561685 0.098800935 0.86500007
-0.17283371 0.09793257 0.86625004
-0.16902949 0.096045479 0.86750007
-0.2370694 0.10319982 0.86800003
-0.23305543 0.10267264 0.86600018
-0.17738704 0.10299118 0.86625004
-0.25206259 0.10817569 0.86725008
-0.24800929 0.10817569 0.86725008
-0.24301331 0.10820755 0.86750007
-0.23776405 0.10711113 0.86683345
-0.23422894 0.10789591 0.86500007
-0.17895712 0.10707013 0.86650008
-0.25169897 0.11206754 0.86600006
-0.24765211 0.11206754 0.86600006
-0.24246518 0.11257442 0.86657155
-0.23751779 0.11257011 0.86520004
-0.18007445 0.11219695 0.86700004
-0.147359 0.11247694 0.86760008
-0.14267977 0.11226107 0.86750007
-0.13963933 0.11226107 0.86750007
-0.251555 0.11755835 0.86620009
-0.24769998 0.11714908 0.86616677
-0.24284789 0.1173785 0.86600006
-0.18007445 0.11523561 0.86700004
-0.1790604 0.11827545 0.86700004
-0.14754999 0.11717044 0.86633343
-0.14243247 0.11611383 0.866
-0.13744244 0.11718277 0.86642867
-0.1334815 0.11928717 0.86700004
-0.25184578 0.12208228 0.86766672
-0.24800989 0.12236141 0.86725003
-0.24384908 0.12180088 0.86566675
-0.17662971 0.12194079 0.86666673
-0.14878385 0.12180088 0.86566675
-0.13202915 0.12189415 0.86633337
-0.12885344 0.12275754 0.86766672
-0.25126621 0.12753724 0.86800003
-0.24789064 0.12736544 0.86683339
-0.24433447 0.12608588 0.86500007
-0.17196977 0.12739186 0.86700004
-0.15188852 0.12956534 0.86800003
-0.14934245 0.12608588 0.86500007
-0.12663057 0.12661709 0.86633343
-0.12277143 0.12883955 0.86766672
-0.25184578 0.13289422 0.86766672
-0.2475815 0.13226348 0.86575007
-0.1677255 0.13230139 0.86600006
-0.16266748 0.1333137 0.86600006
-0.15779087 0.13346764 0.86700004
-0.15300572 0.1320658 0.86666673
-0.12508917 0.13113864 0.86500007
-0.12237412 0.13249265 0.86725003
-0.25532246 0.1376778 0.86800003
-0.25208485 0.13738585 0.86616677
-0.24779871 0.13590665 0.86533344
-0.12508917 0.13720196 0.86500013
-0.12335262 0.13751918 0.86700004
-0.12508917 0.14225473 0.86500007
-0.12335262 0.14258364 0.86700004
-0.12508917 0.14629695 0.86500007
-0.12349489 0.14781839 0.86800003
-0.12328148 0.15262389 0.86650002
-0.12190725 0.15765725 0.86633343
-0.12111693 0.16255912 0.86550009
-0.12114026 0.16764846 0.86566675
-0.12132683 0.17297034 0.86700004
-0.12321034 0.17884117 0.86600006
-0.15576509 0.18411213 0.86700004
-0.15272525 0.18208635 0.86700004
-0.12335262 0.18309924 0.86700004
-0.16000098 0.18838072 0.86800003
-0.159448 0.18570852 0.86500007
-0.14125803 0.18975075 0.86500007
-0.12328148 0.18704346 0.86650002
-0.16245392 0.19213979 0.86666673
-0.14125803 0.1927824 0.86500007
-0.12508917 0.1927824 0.86500007
-0.12335262 0.19221525 0.86700004
-0.16317219 0.1980633 0.86600006
-0.14271587 0.19798765 0.86566675
-0.12581109 0.19791143 0.86533344
-0.12335262 0.19727969 0.86700004
-0.16110417 0.2015911 0.86666673
-0.15754744 0.20405565 0.86566675
-0.15227136 0.20353675 0.86633343
-0.1485897 0.20222746 0.86650002
-0.12598439 0.20242165 0.86560011
-0.12349489 0.20257753 0.86800003
-0.12730426 0.20792322 0.86633343
-0.12349489 0.20663376 0.86800003
-0.2483767 0.21400404 0.86500007
-0.12742384 0.21250774 0.86714292
-0.2466404 0.21728776 0.86600006
-0.12845322 0.21760052 0.86725008
-0.2470676 0.22171742 0.86750007
-0.13125357 0.2222604 0.86566675
-0.12903489 0.22228806 0.86775005
-0.24433447 0.22714123 0.86500007
-0.13239105 0.22753569 0.86650008
-0.24259429 0.23246166 0.86600012
-0.17571837 0.23333994 0.86550009
-0.17290723 0.23276022 0.86560011
-0.16955352 0.2342151 0.86500007
-0.13577813 0.23283407 0.86550003
-0.13285679 0.23146904 0.86733341
-0.23780799 0.23779646 0.86700004
-0.17693251 0.23765874 0.86650002
-0.17303438 0.23786417 0.86725008
-0.16974953 0.23752102 0.86600006
-0.13703135 0.23783307 0.86640006
-0.13363546 0.2350274 0.86800003
-0.23146456 0.24156791 0.86600006
-0.22816561 0.24432063 0.86500007
-0.17865176 0.24298432 0.86600012
-0.17216969 0.24212581 0.86800003
-0.16873859 0.24258041 0.86600006
-0.14198618 0.24374108 0.86533344
-0.137969 0.24170032 0.86720008
-0.22438252 0.24864997 0.86600006
-0.17751889 0.24754982 0.86640006
-0.17294125 0.24754429 0.86780006
-0.16864097 0.24749526 0.86550003
-0.14538422 0.24749586 0.86550009
-0.14293438 0.24758658 0.86700004
-0.13971981 0.24516797 0.86800003
-0.22147688 0.25081813 0.86650002
-0.21856427 0.25298864 0.86700004
-0.21401788 0.25442615 0.86500007
-0.17635822 0.25115415 0.86533344
-0.17268494 0.25153923 0.86550009
-0.16955352 0.25038394 0.86500007
-0.14715326 0.25269645 0.86600012
-0.14377606 0.25125232 0.86800003
-0.21248692 0.2570402 0.86700004
-0.20819496 0.25876719 0.86600006
-0.15136357 0.25846839 0.86500007
-0.14806573 0.25744492 0.86700004
-0.20664766 0.26139289 0.86800003
-0.20228022 0.26234192 0.86666673
-0.19695166 0.26367405 0.86550009
-0.19279626 0.2645317 0.86500007
-0.17157464 0.2645317 0.86500007
-0.16753241 0.2645317 0.86500013
-0.16146909 0.2645317 0.86500007
-0.15540577 0.2645317 0.86500007
-0.15246218 0.26266292 0.86550003
-0.14977407 0.26225638 0.86750007
-0.19830647 0.26514333 0.86700004
-0.19143678 0.26747724 0.86800003
-0.18716468 0.26716912 0.86700004
-0.18290192 0.26686096 0.86600006
-0.17784332 0.26686096 0.86600006
-0.17241569 0.26844761 0.86720008
-0.16747542 0.26791874 0.86680001
-0.16228445 0.26844761 0.86720008
-0.15766877 0.26696369 0.86633337
-0.15290257 0.26646319 0.86800003
-0.19779073 0.079377279 0.8736667
-0.19253954 0.078295633 0.87300003
-0.18722533 0.079225853 0.8720001
-0.18213168 0.079225853 0.87200004
-0.17724106 0.079316705 0.87300003
-0.17233872 0.079407558 0.87400001
-0.20603396 0.083491832 0.87400001
-0.20247559 0.08274743 0.87333339
-0.19768478 0.082020983 0.87140006
-0.18882871 0.081076935 0.87000006
-0.18171394 0.081076935 0.87000006
-0.17764837 0.081076935 0.87000006
-0.17231804 0.081964605 0.87080014
-0.1669448 0.08232864 0.87250012
-0.16212803 0.083491832 0.87400001
-0.23053958 0.089618236 0.87400001
-0.22687617 0.088834994 0.87300003
-0.22211629 0.087474242 0.87300003
-0.21748893 0.08806961 0.87216663
-0.21217854 0.087821409 0.87239999
-0.20746459 0.087317124 0.87142867
-0.20261328 0.085917972 0.87100005
-0.16669624 0.086481027 0.87120008
-0.1627063 0.087730289 0.87300009
-0.15906483 0.087576099 0.87400001
-0.23218313 0.092522375 0.87250006
-0.22753887 0.091953442 0.87033343
-0.22236973 0.091240883 0.87000006
-0.21525498 0.091240883 0.87000006
-0.21220578 0.091240883 0.87000006
-0.16665936 0.092363313 0.87100005
-0.16286832 0.092522189 0.87250006
-0.15838413 0.093021803 0.87400001
-0.24047479 0.099714696 0.87300003
-0.23683111 0.097923882 0.87160009
-0.23266789 0.095361233 0.87050009
-0.1705336 0.099372037 0.87000006
-0.16718873 0.098243728 0.8720001
-0.16272962 0.097434781 0.87312508
-0.15850881 0.09724886 0.87375003
-0.15140684 0.098297305 0.87400001
-0.14779052 0.098779291 0.87375003
-0.14476989 0.099828914 0.87400001
-0.2526179 0.10375466 0.87266672
-0.24717921 0.10307395 0.87266672
-0.24339561 0.10271436 0.87250006
-0.23906267 0.10212128 0.87033343
-0.17292808 0.10263802 0.87183332
-0.16815761 0.10181277 0.87349999
-0.15183105 0.10283326 0.87349999
-0.14762136 0.10274467 0.87275004
-0.14297241 0.10297745 0.87300009
-0.25286156 0.1054704 0.87000006
-0.24777961 0.1054704 0.87000006
-0.24269763 0.1054704 0.87000006
-0.17662881 0.10770875 0.87166667
-0.17335978 0.10595532 0.87400001
-0.15159929 0.10777014 0.87216675
-0.14732566 0.10762521 0.87100017
-0.14223735 0.10762573 0.87100011
-0.1374117 0.10783154 0.87266678
-0.17815767 0.11290927 0.87250006
-0.15303376 0.11266636 0.87220013
-0.13714945 0.11271399 0.87100005
-0.13393322 0.11249492 0.87325001
-0.17785254 0.11752921 0.87200004
-0.15235516 0.11775732 0.87066674
-0.13597618 0.11563435 0.87000006
-0.13188218 0.11761387 0.87150013
-0.12760516 0.11875205 0.87300009
-0.25387797 0.12376551 0.87000006
-0.17520124 0.12113142 0.87300003
-0.17368194 0.12383664 0.87050009
-0.15395375 0.12253153 0.87280005
-0.1265012 0.12190587 0.87125003
-0.1223503 0.12182637 0.87250012
-0.11770181 0.12278423 0.87266672
-0.11247803 0.12348924 0.87379998
-0.25620493 0.12797801 0.87100005
-0.25387797 0.1278311 0.87000006
-0.17160323 0.12676665 0.8720001
-0.16110697 0.1284188 0.87400001
-0.15764353 0.12768912 0.8736667
-0.15347655 0.12699661 0.87125003
-0.1224709 0.12652409 0.87033343
-0.11810609 0.12739556 0.87100011
-0.11289001 0.12714237 0.87225008
-0.10928893 0.12764093 0.87333339
-0.25610691 0.13199697 0.87066674
-0.25387797 0.13189666 0.87000006
-0.16689794 0.13070852 0.87225008
-0.16233048 0.13135363 0.87180007
-0.15754679 0.13106744 0.87125009
-0.1544486 0.13001315 0.87100005
-0.11754416 0.1322837 0.87087512
-0.11287932 0.13222554 0.87216675
-0.10916119 0.13282055 0.87340003
-0.25591078 0.13596225 0.87000006
-0.12174665 0.13697864 0.87000006
-0.11790534 0.13724145 0.87166679
-0.11245238 0.13734171 0.87360001
-0.12141162 0.1422653 0.87125009
-0.11808531 0.14051068 0.87300003
-0.12202653 0.14748085 0.87200004
-0.12193324 0.15245709 0.87133336
-0.12071253 0.15738925 0.87233341
-0.1198056 0.16251218 0.87066674
-0.11971387 0.16747048 0.87000006
-0.11947853 0.17294972 0.87200004
-0.12097106 0.17799205 0.87175006
-0.12148101 0.18257339 0.87175006
-0.15802091 0.1878913 0.8720001
-0.15462592 0.18517391 0.87200004
-0.12188659 0.18801424 0.87100005
-0.16135447 0.19324832 0.87166679
-0.14410734 0.19491315 0.87000006
-0.12188659 0.19208449 0.87100005
-0.16124651 0.1973981 0.87200004
-0.15906483 0.19989355 0.87400001
-0.1508963 0.19989355 0.87400001
-0.14410734 0.19694594 0.87000006
-0.12123766 0.19785237 0.87220001
-0.16055399 0.20124257 0.87100005
-0.1575013 0.20225894 0.87100005
-0.15296601 0.20180851 0.87125003
-0.12107543 0.20260844 0.87250006
-0.12170795 0.20762452 0.87216675
-0.25271359 0.21190365 0.87300003
-0.12179245 0.21234675 0.87242866
-0.25038669 0.21981077 0.87200004
-0.24981239 0.21727383 0.87000006
-0.12581223 0.21727383 0.87000006
-0.12327652 0.21741576 0.87220001
-0.25067383 0.2231237 0.87300003
-0.12658623 0.22286499 0.87066674
-0.12295347 0.22245972 0.87280005
-0.24806443 0.22770076 0.87100005
-0.12771803 0.2279212 0.87087512
-0.12325633 0.22733228 0.87349999
-0.24631174 0.23407301 0.87200004
-0.13065493 0.23303673 0.87066674
-0.1271925 0.23318791 0.87250006
-0.12434854 0.23154667 0.87400001
-0.24311548 0.23699382 0.87150002
-0.13206068 0.23753487 0.87099999
-0.12733826 0.2375371 0.87349999
-0.24075025 0.24073626 0.87400001
-0.23585364 0.24194509 0.87100005
-0.23408698 0.24426033 0.87200004
-0.17663197 0.24268371 0.87000006
-0.17459917 0.24268371 0.87000006
-0.13597618 0.2437001 0.87000006
-0.13201426 0.24258201 0.87237507
-0.12843281 0.24175733 0.87400001
-0.23178339 0.24601533 0.87100005
-0.2286 0.24892446 0.87050009
-0.17663197 0.24573289 0.87000006
-0.17459917 0.24573289 0.87000006
-0.14105815 0.24878207 0.87000006
-0.13718911 0.24710467 0.87125003
-0.13280281 0.24745309 0.87320006
-0.22645532 0.25298908 0.87400001
-0.22160776 0.25415584 0.87100005
-0.14189474 0.25264356 0.87140006
-0.13754368 0.25182447 0.87349999
-0.13455921 0.25094697 0.87400001
-0.22032891 0.25707334 0.87400001
-0.21639508 0.25706148 0.87050009
-0.21118939 0.25996241 0.87000006
-0.14614013 0.25792962 0.87000006
-0.14293788 0.25712791 0.87280005
-0.21395741 0.26085883 0.87300003
-0.2075206 0.2638554 0.87166679
-0.14708762 0.26264313 0.87080002
-0.14460425 0.26187873 0.87300003
-0.20216672 0.26735315 0.8720001
-0.19831818 0.26855579 0.87150002
-0.19492708 0.26809359 0.87000006
-0.15094085 0.26751873 0.87033343
-0.14794716 0.26755625 0.87266672
-0.14476989 0.26524189 0.87400001
-0.19559923 0.27105781 0.87300003
-0.19231898 0.27074733 0.87200004
-0.18824406 0.27074733 0.87200004
-0.18253544 0.27110261 0.87150007
-0.17740397 0.27190909 0.87180007
-0.17194435 0.2727848 0.87200004
-0.16786943 0.2727848 0.87200004
-0.16277578 0.2727848 0.8720001
-0.1575917 0.27161199 0.87150007
-0.15318534 0.27141312 0.8725
-0.2236432 0.079861842 0.87900007
-0.20705549 0.079116665 0.87833345
-0.20252794 0.078610711 0.87650001
-0.19757663 0.076626204 0.87725008
-0.19239716 0.075581841 0.87700003
-0.18780223 0.076774053 0.87660009
-0.18264341 0.076434098 0.8774001
-0.17771399 0.07748346 0.87533343
-0.17283109 0.077586725 0.87650001
-0.16780625 0.078653999 0.87700003
-0.16308831 0.079025805 0.87733334
-0.15876591 0.079770982 0.87800002
-0.22621046 0.08322119 0.87833345
-0.2219201 0.082682192 0.87625003
-0.21749429 0.082585275 0.87740004
-0.21262395 0.083014213 0.87760013
-0.20779139 0.082286514 0.87566674
-0.20422524 0.081542894 0.87500006
-0.16240571 0.08158949 0.87550008
-0.15756014 0.082753062 0.87700009
-0.1530121 0.08322119 0.87833345
-0.23542921 0.089925855 0.87700003
-0.23228838 0.087849326 0.87675011
-0.22833806 0.086411193 0.87600011
-0.22466995 0.085631832 0.87500006
-0.21649207 0.085631832 0.87500006
-0.21342535 0.085631832 0.87500006
-0.15703575 0.087726116 0.87550002
-0.15235172 0.087825827 0.87650007
-0.14910713 0.088025846 0.8785001
-0.23798089 0.093269631 0.87633342
-0.23489232 0.091765255 0.87500006
-0.15583938 0.092446744 0.87500012
-0.15217809 0.092839926 0.87550008
-0.14733863 0.092574127 0.87714297
-0.14354429 0.094238572 0.87900007
-0.24232459 0.098009378 0.87600005
-0.23898126 0.095854193 0.87500006
-0.1559757 0.098307565 0.87500012
-0.15311342 0.096876428 0.87500006
-0.14703523 0.095890716 0.87533343
-0.14276612 0.097704761 0.87633336
-0.13840973 0.098346204 0.87900007
-0.25592065 0.10222072 0.87700003
-0.25182006 0.10153612 0.87700003
-0.24744084 0.10073887 0.87600011
-0.16700871 0.10358042 0.87550008
-0.1624063 0.1030693 0.87550008
-0.15726265 0.10304948 0.87533343
-0.14092708 0.1010225 0.87550008
-0.13701606 0.10218031 0.87666667
-0.1332752 0.10450766 0.87900007
-0.17190394 0.10785645 0.87699997
-0.1678074 0.10631901 0.87700003
-0.16287006 0.10746714 0.87800008
-0.15738358 0.10722119 0.87600005
-0.13344055 0.10759746 0.87740004
-0.17560261 0.11220998 0.87500012
-0.17408709 0.11255351 0.87766671
-0.16202866 0.11066912 0.87900007
-0.15820117 0.1122107 0.87728584
-0.13168135 0.11200439 0.87659997
-0.12757525 0.11261169 0.87814301
-0.12252386 0.11327697 0.87800014
-0.11812368 0.1140051 0.87833345
-0.11479083 0.11477676 0.87900007
-0.17570296 0.11738761 0.87550008
-0.17415321 0.11772223 0.87800002
-0.15753487 0.11756717 0.87683338
-0.12762983 0.11636536 0.87550008
-0.12251632 0.11738762 0.87550008
-0.11743545 0.11742084 0.87575001
-0.11252209 0.11763285 0.8773334
-0.10862937 0.11888439 0.87900007
-0.17307346 0.12257304 0.87600011
-0.16184431 0.12387668 0.87800002
